ply
format ascii 1.0
comment Created by CloudCompare v2.12.0 (Kyiv)
comment Created 2022-12-30T14:55:42
obj_info Generated by CloudCompare!
element vertex 788
property float x
property float y
property float z
property float nx
property float ny
property float nz
end_header
195.400177 -26.906214 45.450016 0.951115 -0.308835 0.001230 
195.436432 -26.794220 47.140278 0.951836 -0.306607 0.001231 
196.000504 -25.051615 46.441689 0.957524 -0.288352 0.001217 
196.136703 -24.630856 46.044380 0.959249 -0.282560 0.001213 
195.209579 -27.495016 45.659386 0.948930 -0.315485 0.001237 
195.909393 -25.333113 45.339447 0.956644 -0.291258 0.001219 
196.547607 -23.361454 46.346584 0.963362 -0.268202 0.001203 
196.222214 -24.366684 45.904160 0.960094 -0.279674 0.001211 
195.712097 -25.942614 46.294792 0.954632 -0.297786 0.001225 
195.375427 -26.982683 46.503689 0.950879 -0.309560 0.001233 
195.593063 -26.310341 45.816311 0.953006 -0.302950 0.001227 
197.311066 -21.002876 43.766281 0.970628 -0.240583 0.001185 
196.484909 -23.555132 46.242653 0.962562 -0.271059 0.001205 
194.913681 -28.409159 46.274273 0.945148 -0.326641 0.001242 
197.191986 -21.370756 45.586315 0.969369 -0.245605 0.001186 
195.252670 -27.361917 45.853657 0.949175 -0.314746 0.001234 
197.043076 -21.830770 47.136349 0.967932 -0.251210 0.001191 
196.521149 -23.443197 45.047901 0.963188 -0.268825 0.001205 
195.780991 -25.729763 45.194653 0.955540 -0.294859 0.001223 
195.536728 -26.484379 46.278835 0.952780 -0.303660 0.001229 
195.452209 -26.745497 45.309719 0.951836 -0.306607 0.001231 
195.410934 -26.872988 46.069191 0.951115 -0.308835 0.001230 
195.862091 -25.479206 47.369385 0.956436 -0.291939 0.001222 
197.243378 -21.211990 46.626282 0.969932 -0.243373 0.001187 
195.632141 -26.189602 45.938751 0.953712 -0.300720 0.001227 
194.783310 -28.811893 44.124565 0.943838 -0.330406 0.001247 
194.794495 -28.777355 43.590511 0.944109 -0.329630 0.001244 
194.224319 -30.538788 44.475979 0.936483 -0.350710 0.001257 
193.751343 -31.999956 46.452496 0.930643 -0.365926 0.001266 
193.632095 -32.368416 42.516624 0.929088 -0.369856 0.001271 
193.933777 -31.436375 42.510128 0.933019 -0.359825 0.001263 
194.118820 -30.864742 45.209614 0.935342 -0.353743 0.001259 
195.599380 -26.290806 44.143093 0.953712 -0.300720 0.001227 
195.099136 -27.836208 42.678177 0.947936 -0.318457 0.001239 
195.601746 -26.283506 43.592655 0.953712 -0.300720 0.001227 
194.898346 -28.456530 45.632507 0.945148 -0.326641 0.001242 
195.231506 -27.427299 43.597958 0.949175 -0.314746 0.001234 
193.564590 -32.576920 46.697315 0.928213 -0.372047 0.001270 
193.687134 -32.198334 46.160534 0.929435 -0.368984 0.001268 
195.285645 -27.260075 42.814537 0.949911 -0.312519 0.001235 
194.036133 -31.120193 46.452759 0.934187 -0.356781 0.001261 
193.654755 -32.298378 43.890453 0.929435 -0.368984 0.001268 
193.634155 -32.362011 45.432201 0.929088 -0.369856 0.001271 
193.659546 -32.283554 44.319897 0.929435 -0.368984 0.001268 
193.951523 -31.381577 43.674286 0.933019 -0.359825 0.001263 
193.549286 -32.624233 47.383327 0.927860 -0.372926 0.001273 
194.192245 -30.637888 44.952404 0.936483 -0.350710 0.001257 
194.850967 -28.602892 43.856979 0.944882 -0.327410 0.001245 
193.650284 -32.312187 44.433807 0.929088 -0.369856 0.001271 
194.245346 -30.473825 42.936256 0.937307 -0.348502 0.001258 
194.357880 -30.126215 42.580509 0.938428 -0.345472 0.001256 
195.481613 -26.654640 43.245575 0.952066 -0.305890 0.001228 
193.645020 -32.328438 43.988876 0.929088 -0.369856 0.001271 
194.160187 -30.736942 46.080067 0.936173 -0.351537 0.001260 
193.704895 -32.143456 47.039940 0.930303 -0.366791 0.001269 
195.436203 -26.794928 43.891899 0.951836 -0.306607 0.001231 
194.465073 -29.795019 44.938671 0.939829 -0.341642 0.001251 
195.132935 -27.731827 44.614754 0.948187 -0.317711 0.001236 
194.205704 -30.596327 44.784702 0.936483 -0.350710 0.001257 
196.516876 -23.456392 43.442844 0.963188 -0.268825 0.001205 
195.454971 -26.736946 43.202221 0.951836 -0.306607 0.001231 
194.295074 -30.320253 46.023663 0.937612 -0.347682 0.001255 
191.822525 -36.212151 45.570862 0.909655 -0.415362 0.001294 
189.934067 -40.062828 46.276566 0.888291 -0.459279 0.001316 
191.725037 -36.410938 46.295853 0.909207 -0.416342 0.001297 
191.955566 -35.940857 44.712914 0.911072 -0.412244 0.001292 
189.034286 -41.897545 46.955963 0.877641 -0.479317 0.001328 
193.468292 -32.856335 47.063400 0.926978 -0.375114 0.001272 
191.999115 -35.852058 47.413166 0.912042 -0.410095 0.001294 
193.466614 -32.859753 43.589542 0.926619 -0.376001 0.001275 
191.742157 -36.376003 46.477108 0.909207 -0.416342 0.001297 
189.817520 -40.300472 46.112217 0.886654 -0.462431 0.001317 
191.585266 -36.695927 45.761368 0.907768 -0.419470 0.001299 
190.336548 -39.242149 45.692738 0.893111 -0.449834 0.001311 
190.950256 -37.990757 46.184994 0.900357 -0.435151 0.001307 
193.257477 -33.286182 43.355572 0.924466 -0.381263 0.001275 
192.682556 -34.458473 44.546623 0.918878 -0.394539 0.001285 
190.564682 -38.776951 45.510548 0.895734 -0.444588 0.001311 
192.193375 -35.455967 45.723225 0.913864 -0.406019 0.001289 
192.907166 -34.000507 45.094120 0.921514 -0.388343 0.001282 
193.430984 -32.932384 44.289436 0.926619 -0.376001 0.001275 
192.850662 -34.115696 45.487000 0.920595 -0.390517 0.001280 
191.102371 -37.680569 46.248657 0.901868 -0.432009 0.001305 
191.261688 -37.355740 45.279446 0.903843 -0.427862 0.001300 
193.186707 -33.430504 46.391418 0.924094 -0.382163 0.001278 
191.671890 -36.519295 46.354992 0.908224 -0.418483 0.001296 
192.781143 -34.257450 45.865002 0.920203 -0.391439 0.001283 
188.977615 -42.013077 46.929184 0.876523 -0.481358 0.001326 
189.421570 -41.107834 46.314602 0.882755 -0.469832 0.001323 
190.432938 -39.045605 46.382889 0.894164 -0.447738 0.001313 
190.241013 -39.436943 45.512543 0.892578 -0.450890 0.001315 
190.844604 -38.206169 46.990662 0.898831 -0.438294 0.001308 
192.577606 -34.672493 43.499966 0.917945 -0.396706 0.001284 
192.113724 -35.618374 45.665882 0.913437 -0.406977 0.001292 
193.055603 -33.697834 44.906761 0.922811 -0.385251 0.001280 
192.201904 -35.438564 46.384003 0.913864 -0.406019 0.001289 
193.216980 -33.368774 43.790512 0.924466 -0.381263 0.001275 
193.388901 -33.018211 45.531128 0.925729 -0.378186 0.001273 
190.561768 -38.782898 47.045128 0.895734 -0.444588 0.001311 
192.092224 -35.662201 46.948845 0.912475 -0.409130 0.001291 
191.797165 -36.263859 42.937302 0.909655 -0.415362 0.001294 
190.015198 -39.897419 43.501617 0.889364 -0.457199 0.001318 
188.484863 -43.017845 43.993530 0.870612 -0.491969 0.001333 
189.078888 -41.806599 45.589878 0.878249 -0.478202 0.001325 
188.960190 -42.048603 45.807594 0.876523 -0.481358 0.001326 
188.719955 -42.538475 44.557400 0.873026 -0.487672 0.001329 
191.173767 -37.535019 43.217060 0.902354 -0.430994 0.001302 
188.580887 -42.822067 43.106209 0.871255 -0.490829 0.001330 
188.606888 -42.769024 45.172848 0.872392 -0.488806 0.001332 
190.181366 -39.558556 44.109745 0.891519 -0.452981 0.001313 
191.531860 -36.804806 43.772560 0.906778 -0.421606 0.001297 
190.055786 -39.814621 44.594540 0.889912 -0.456129 0.001314 
191.004517 -37.880096 44.148617 0.900850 -0.434129 0.001304 
191.947250 -35.957821 43.380699 0.911072 -0.412244 0.001292 
189.603226 -40.737442 44.826611 0.884429 -0.466672 0.001322 
189.053864 -41.857605 44.828228 0.877641 -0.479317 0.001328 
190.673981 -38.554070 43.992966 0.897290 -0.441440 0.001310 
188.238144 -43.520893 47.231964 0.867007 -0.498295 0.001336 
188.333969 -43.325508 45.214737 0.868817 -0.495132 0.001335 
189.668243 -40.604851 45.733845 0.885003 -0.465583 0.001319 
191.230774 -37.418762 44.385292 0.903365 -0.428870 0.001304 
188.169327 -43.661236 43.678764 0.865851 -0.500299 0.001334 
192.671204 -34.481644 42.705677 0.918878 -0.394539 0.001285 
188.313354 -43.367535 46.596252 0.868817 -0.495132 0.001335 
189.684601 -40.571484 45.739952 0.885003 -0.465583 0.001319 
188.332321 -43.328865 44.106140 0.868817 -0.495132 0.001335 
192.985565 -33.840641 42.808029 0.921899 -0.387428 0.001279 
188.915405 -42.139935 43.441444 0.875906 -0.482479 0.001329 
193.057404 -33.694126 42.785732 0.922811 -0.385251 0.001280 
190.476151 -38.957493 43.642662 0.894688 -0.446689 0.001310 
189.103317 -41.756783 44.805058 0.878249 -0.478202 0.001325 
188.302658 -43.389381 45.921310 0.867668 -0.497143 0.001333 
188.238144 -43.520912 46.457718 0.867007 -0.498295 0.001336 
190.451630 -39.007492 43.893684 0.894688 -0.446689 0.001310 
189.444016 -41.062073 45.548191 0.882755 -0.469832 0.001323 
192.809189 -34.200272 42.959412 0.920203 -0.391439 0.001283 
192.207245 -35.427662 42.767094 0.913864 -0.406019 0.001289 
187.809525 -44.294571 44.287663 0.862174 -0.506611 0.001337 
184.590302 -49.011627 47.104496 0.827633 -0.561268 0.001359 
187.502014 -44.745159 44.390663 0.859615 -0.510941 0.001341 
187.708786 -44.442188 44.870102 0.861485 -0.507781 0.001340 
186.592545 -46.077770 44.219353 0.850035 -0.526725 0.001347 
186.103149 -46.794872 44.995289 0.844105 -0.536176 0.001351 
186.289566 -46.521736 44.671383 0.846097 -0.533028 0.001349 
185.093307 -48.274574 45.588703 0.832674 -0.553762 0.001354 
186.829071 -45.731194 44.110153 0.851981 -0.523571 0.001346 
184.953918 -48.478813 44.801281 0.831841 -0.555013 0.001357 
186.661179 -45.977215 46.850555 0.850035 -0.526725 0.001347 
186.538513 -46.156952 45.890594 0.848828 -0.528668 0.001345 
187.605835 -44.593040 43.279938 0.860313 -0.509765 0.001338 
186.609604 -46.052792 44.431625 0.850035 -0.526725 0.001347 
186.554535 -46.133469 45.451206 0.848828 -0.528668 0.001345 
185.632217 -47.484921 45.300415 0.838844 -0.544370 0.001351 
187.383011 -44.919525 47.491928 0.857729 -0.514100 0.001342 
185.744003 -47.321125 45.215687 0.840077 -0.542465 0.001353 
185.006989 -48.401054 46.973808 0.831841 -0.555013 0.001357 
186.577469 -46.099876 44.185383 0.848828 -0.528668 0.001345 
186.326660 -46.467377 44.610420 0.846861 -0.531813 0.001346 
187.446884 -44.825947 42.918888 0.858436 -0.512919 0.001339 
184.724594 -48.814846 47.377075 0.828486 -0.560008 0.001356 
186.317215 -46.481209 45.684769 0.846861 -0.531813 0.001346 
185.572830 -47.571941 46.515450 0.838040 -0.545606 0.001354 
187.754288 -44.375504 43.394596 0.861485 -0.507781 0.001340 
187.378754 -44.925766 43.209808 0.857729 -0.514100 0.001342 
186.678391 -45.951984 43.842110 0.850035 -0.526725 0.001347 
184.296768 -49.441734 45.613029 0.824239 -0.566240 0.001358 
184.683380 -48.875244 46.674397 0.828486 -0.560008 0.001356 
186.150589 -46.725365 47.132172 0.844879 -0.534955 0.001347 
185.762802 -47.293583 44.901810 0.840077 -0.542465 0.001353 
185.849487 -47.166573 44.154060 0.840871 -0.541234 0.001350 
186.640533 -46.007462 47.368004 0.850035 -0.526725 0.001347 
183.949692 -49.950294 46.226734 0.819933 -0.572458 0.001360 
182.698151 -51.784138 46.773136 0.804402 -0.594083 0.001366 
185.412827 -47.806393 46.143024 0.836802 -0.547504 0.001352 
183.080582 -51.223774 44.505310 0.810210 -0.586138 0.001366 
185.623642 -47.497490 42.718235 0.838844 -0.544370 0.001351 
182.367950 -52.267971 46.408813 0.801148 -0.598464 0.001369 
182.810471 -51.619556 43.993229 0.806665 -0.591008 0.001365 
182.339951 -52.309013 43.161438 0.801148 -0.598464 0.001369 
181.911209 -52.937222 42.970562 0.795211 -0.606331 0.001369 
182.777573 -51.667755 45.248730 0.805708 -0.592312 0.001368 
186.505066 -46.205963 42.613167 0.848828 -0.528668 0.001345 
183.975571 -49.912384 43.661575 0.819933 -0.572458 0.001360 
182.611053 -51.911777 45.110146 0.804402 -0.594083 0.001366 
185.665970 -47.435471 43.531780 0.838844 -0.544370 0.001351 
182.417221 -52.195770 43.543873 0.802126 -0.597153 0.001366 
186.086029 -46.819977 43.043472 0.844105 -0.536176 0.001351 
181.461411 -53.596317 43.163372 0.789499 -0.613750 0.001373 
181.525284 -53.502728 42.589497 0.790530 -0.612421 0.001370 
182.466827 -52.123093 44.368069 0.802126 -0.597153 0.001366 
183.341034 -50.842159 43.647133 0.812439 -0.583045 0.001365 
183.310898 -50.886299 44.271297 0.812439 -0.583045 0.001365 
181.939102 -52.896343 46.563599 0.795211 -0.606331 0.001369 
184.634399 -48.946999 44.092499 0.827633 -0.561268 0.001359 
181.063400 -54.179501 43.399265 0.784741 -0.619822 0.001374 
183.626892 -50.423294 43.423588 0.815569 -0.578659 0.001362 
186.494873 -46.220894 43.034946 0.848073 -0.529877 0.001348 
181.498489 -53.541969 46.485466 0.790530 -0.612421 0.001370 
184.449402 -49.218071 44.453892 0.825507 -0.564391 0.001360 
183.621109 -50.431759 43.779793 0.815569 -0.578659 0.001362 
182.017303 -52.781776 43.853554 0.796531 -0.604596 0.001371 
185.115555 -48.241974 43.258171 0.832674 -0.553762 0.001354 
186.216690 -46.628506 43.423389 0.844879 -0.534955 0.001347 
183.588013 -50.480251 45.011795 0.815569 -0.578659 0.001362 
181.147797 -54.055836 44.891582 0.785794 -0.618487 0.001371 
183.791397 -50.182240 42.758728 0.817758 -0.575560 0.001361 
184.441269 -49.229992 43.650021 0.825507 -0.564391 0.001360 
184.586227 -49.017578 44.041489 0.827633 -0.561268 0.001359 
181.518051 -53.513313 45.828053 0.790530 -0.612421 0.001370 
183.234497 -50.998253 43.732704 0.811146 -0.584843 0.001363 
184.039963 -49.818024 43.481419 0.821210 -0.570625 0.001362 
176.673187 -59.016068 47.421597 0.735490 -0.677534 0.001380 
174.057785 -61.870274 47.084179 0.705724 -0.708486 0.001381 
175.580048 -60.209007 47.380882 0.723512 -0.690311 0.001383 
180.769974 -54.545208 45.050945 0.781002 -0.624527 0.001373 
174.027115 -61.903740 46.835655 0.704333 -0.709868 0.001384 
177.419739 -58.201344 45.117558 0.744734 -0.667359 0.001382 
175.252655 -60.566296 47.386017 0.719425 -0.694569 0.001381 
180.879120 -54.426102 47.373909 0.782341 -0.622848 0.001375 
178.652328 -56.856209 46.110825 0.758770 -0.651358 0.001377 
180.287842 -55.071354 47.402740 0.776155 -0.630540 0.001374 
180.156143 -55.215088 44.558601 0.775059 -0.631887 0.001377 
180.230209 -55.134254 44.651947 0.776155 -0.630540 0.001374 
177.470718 -58.145706 47.445950 0.744734 -0.667359 0.001382 
176.191040 -59.542225 45.610218 0.730182 -0.683251 0.001380 
174.140182 -61.780350 47.223862 0.705724 -0.708486 0.001381 
173.516647 -62.460812 47.283749 0.698755 -0.715359 0.001384 
180.108856 -55.266693 45.597874 0.775059 -0.631887 0.001377 
178.443558 -57.084042 44.951035 0.756234 -0.654300 0.001377 
177.733826 -57.858582 46.439430 0.748548 -0.663079 0.001379 
176.919724 -58.747013 47.456520 0.739501 -0.673154 0.001382 
173.221085 -62.783371 47.254559 0.694569 -0.719425 0.001381 
180.920746 -54.380661 43.773129 0.783405 -0.621510 0.001372 
177.686859 -57.909832 47.338554 0.747332 -0.664449 0.001381 
176.572388 -59.126057 45.967808 0.735490 -0.677534 0.001380 
179.506958 -55.923542 44.089783 0.767655 -0.640861 0.001378 
179.691772 -55.721855 47.015606 0.770137 -0.637877 0.001378 
179.093307 -56.374962 45.367638 0.763803 -0.645448 0.001376 
177.297546 -58.334698 46.208733 0.743362 -0.668888 0.001379 
178.127563 -57.428890 45.916035 0.752490 -0.658602 0.001381 
174.477325 -61.412426 47.190880 0.709868 -0.704333 0.001384 
176.972214 -58.689732 45.647949 0.739501 -0.673154 0.001382 
180.446609 -54.898094 44.083313 0.778585 -0.627537 0.001373 
176.061798 -59.683270 46.243923 0.728889 -0.684630 0.001383 
180.834213 -54.475094 44.123871 0.782341 -0.622848 0.001375 
180.063278 -55.316429 43.683372 0.773712 -0.633537 0.001374 
177.001892 -58.657341 46.606731 0.739501 -0.673154 0.001382 
175.395035 -60.410923 45.937160 0.720806 -0.693136 0.001384 
178.131821 -57.424236 46.995876 0.752490 -0.658602 0.001381 
177.643555 -57.957088 42.746525 0.747332 -0.664449 0.001381 
175.093231 -60.740284 42.552670 0.718088 -0.695951 0.001384 
174.307724 -61.597500 43.429050 0.708486 -0.705724 0.001381 
172.863876 -63.173191 46.414894 0.690311 -0.723512 0.001383 
173.293686 -62.704136 44.404652 0.695951 -0.718088 0.001384 
173.535294 -62.440464 42.973942 0.698755 -0.715359 0.001384 
175.171906 -60.654423 42.842209 0.718088 -0.695951 0.001384 
174.018295 -61.913364 46.032352 0.704333 -0.709868 0.001384 
176.461411 -59.247162 42.677586 0.734219 -0.678911 0.001383 
175.213150 -60.609406 44.239902 0.719425 -0.694569 0.001381 
177.656387 -57.943096 44.230049 0.747332 -0.664449 0.001381 
176.421890 -59.290298 44.289257 0.732842 -0.680398 0.001380 
172.762772 -63.283516 44.228687 0.688930 -0.724826 0.001381 
175.257919 -60.560562 43.450981 0.719425 -0.694569 0.001381 
177.107819 -58.541748 43.314274 0.740750 -0.671779 0.001379 
174.535904 -61.348507 44.553310 0.711237 -0.702951 0.001381 
177.644409 -57.956169 44.074638 0.747332 -0.664449 0.001381 
178.657898 -56.850128 42.863911 0.758770 -0.651358 0.001377 
174.388535 -61.509323 45.768051 0.708486 -0.705724 0.001381 
178.521057 -56.999462 43.028404 0.757597 -0.652721 0.001380 
176.282639 -59.442261 42.540874 0.731560 -0.681775 0.001383 
177.083694 -58.568077 43.103195 0.740750 -0.671779 0.001379 
172.982788 -63.043427 43.418240 0.691755 -0.722131 0.001381 
172.976654 -63.050125 42.930035 0.691755 -0.722131 0.001381 
174.376282 -61.522690 45.420921 0.708486 -0.705724 0.001381 
176.470779 -59.236954 43.523788 0.734219 -0.678911 0.001383 
172.620773 -63.438484 45.974880 0.687475 -0.726206 0.001383 
172.611481 -63.448624 45.533882 0.687475 -0.726206 0.001383 
177.319305 -58.310955 44.327065 0.743362 -0.668888 0.001379 
179.231308 -56.224365 42.540604 0.765161 -0.643838 0.001379 
177.249496 -58.387135 43.958813 0.742124 -0.670261 0.001382 
178.955521 -56.525322 42.862713 0.761293 -0.648407 0.001377 
179.004333 -56.472065 43.557476 0.762653 -0.646807 0.001379 
174.814499 -61.044456 44.163242 0.713977 -0.700167 0.001381 
174.204834 -61.709782 43.489609 0.707106 -0.707106 0.001384 
173.133362 -62.879093 43.622879 0.694569 -0.719425 0.001381 
176.453049 -59.256290 44.719284 0.734219 -0.678911 0.001383 
169.673691 -65.884247 45.267662 0.655665 -0.755050 0.001380 
171.827026 -64.121002 47.199963 0.678911 -0.734219 0.001383 
168.044281 -67.218483 45.551743 0.636526 -0.771254 0.001375 
165.755249 -69.092842 46.255936 0.610705 -0.791857 0.001372 
169.184937 -66.284470 45.825947 0.649768 -0.760132 0.001380 
167.971680 -67.277931 45.591415 0.636526 -0.771254 0.001375 
167.953888 -67.292496 45.920631 0.636526 -0.771254 0.001375 
169.065353 -66.382393 46.137238 0.648407 -0.761293 0.001377 
172.096436 -63.900402 43.559238 0.681775 -0.731560 0.001383 
170.004120 -65.613686 46.136436 0.658602 -0.752490 0.001381 
165.635422 -69.190971 47.330540 0.609379 -0.792878 0.001369 
171.045700 -64.760788 43.422188 0.670261 -0.742124 0.001382 
172.384140 -63.664822 45.568993 0.684630 -0.728889 0.001383 
169.972214 -65.639809 43.869797 0.658602 -0.752490 0.001381 
165.557816 -69.254517 47.191048 0.607653 -0.794201 0.001372 
167.591721 -67.589058 46.924477 0.631887 -0.775059 0.001377 
170.065842 -65.563133 47.283890 0.660161 -0.751123 0.001378 
163.739624 -70.743332 47.309425 0.586138 -0.810210 0.001366 
166.828537 -68.213997 47.224094 0.622848 -0.782341 0.001375 
171.096619 -64.719093 44.239765 0.670261 -0.742124 0.001382 
172.050644 -63.937897 45.151863 0.681775 -0.731560 0.001383 
169.932022 -65.672722 45.781361 0.658602 -0.752490 0.001381 
164.403427 -70.199776 47.165348 0.594083 -0.804402 0.001366 
168.992615 -66.441940 46.836567 0.646807 -0.762653 0.001379 
169.141281 -66.320213 47.030155 0.649768 -0.760132 0.001380 
171.733765 -64.197372 44.423241 0.677534 -0.735490 0.001380 
164.874725 -69.813858 47.021976 0.600218 -0.799835 0.001367 
165.094864 -69.633606 46.942135 0.603278 -0.797530 0.001368 
171.219376 -64.618576 45.885498 0.671779 -0.740750 0.001379 
168.212402 -67.080811 47.494091 0.637877 -0.770137 0.001378 
172.493454 -63.575298 46.441494 0.686096 -0.727510 0.001380 
172.167252 -63.842411 43.630638 0.681775 -0.731560 0.001383 
171.964157 -64.008720 45.446259 0.680398 -0.732842 0.001380 
171.661209 -64.256783 46.982174 0.677534 -0.735490 0.001380 
172.151978 -63.854919 45.983940 0.681775 -0.731560 0.001383 
170.292007 -65.377945 46.983665 0.661530 -0.749918 0.001381 
168.747131 -66.642967 46.394314 0.645448 -0.763803 0.001376 
167.598328 -67.583649 43.119553 0.631887 -0.775059 0.001377 
168.876343 -66.537155 43.617294 0.646807 -0.762653 0.001379 
165.145554 -69.592094 43.371338 0.603278 -0.797530 0.001368 
165.866562 -69.001694 45.866184 0.612421 -0.790530 0.001370 
163.023346 -71.329849 45.569626 0.578659 -0.815569 0.001362 
167.417114 -67.732033 44.991966 0.628881 -0.777500 0.001376 
167.060379 -68.024147 44.448811 0.625868 -0.779928 0.001376 
164.038269 -70.498795 44.976753 0.589227 -0.807966 0.001367 
170.652786 -65.082520 42.701839 0.665988 -0.745961 0.001379 
164.534973 -70.092056 42.701012 0.595391 -0.803435 0.001369 
166.153290 -68.766922 44.927505 0.615457 -0.788169 0.001371 
164.099091 -70.448990 45.714622 0.591008 -0.806665 0.001365 
165.470642 -69.325897 45.596222 0.606331 -0.795211 0.001369 
167.441757 -67.711861 42.729107 0.630540 -0.776155 0.001374 
164.024796 -70.509827 43.542671 0.589227 -0.807966 0.001367 
166.859085 -68.188988 45.063297 0.622848 -0.782341 0.001375 
164.471420 -70.144096 43.004719 0.595391 -0.803435 0.001369 
169.199600 -66.272453 43.438385 0.649768 -0.760132 0.001380 
170.758804 -64.995705 43.249680 0.667359 -0.744734 0.001382 
165.054337 -69.666786 45.061390 0.601533 -0.798847 0.001370 
168.639282 -66.731277 42.537991 0.643838 -0.765161 0.001379 
168.359802 -66.960129 43.182415 0.640861 -0.767655 0.001378 
165.824280 -69.036316 45.500938 0.610705 -0.791857 0.001372 
169.755188 -65.817520 42.832474 0.655665 -0.755050 0.001380 
166.511612 -68.473495 45.262871 0.618487 -0.785794 0.001371 
165.310959 -69.456650 44.711143 0.604596 -0.796531 0.001371 
163.009857 -71.340904 42.827595 0.576843 -0.816854 0.001364 
169.777618 -65.799156 43.614540 0.655665 -0.755050 0.001380 
163.813110 -70.683151 45.105469 0.587928 -0.808912 0.001364 
165.768845 -69.081711 43.413059 0.610705 -0.791857 0.001372 
163.153931 -71.222923 42.619530 0.579946 -0.814654 0.001365 
165.809891 -69.048111 43.859970 0.610705 -0.791857 0.001372 
165.825882 -69.035004 43.204128 0.610705 -0.791857 0.001372 
164.215057 -70.354027 44.542377 0.592312 -0.805708 0.001368 
165.672531 -69.160576 44.424587 0.609379 -0.792878 0.001369 
163.716217 -70.762489 46.212273 0.586138 -0.810210 0.001366 
164.691513 -69.963882 46.516125 0.597153 -0.802126 0.001366 
158.547562 -74.072922 47.045181 0.528668 -0.848828 0.001345 
158.758713 -73.945419 47.328564 0.529877 -0.848073 0.001348 
154.581177 -76.467896 47.209446 0.481358 -0.876523 0.001326 
161.176895 -72.485275 45.154182 0.556887 -0.830587 0.001355 
157.043610 -74.981026 47.266388 0.510941 -0.859615 0.001341 
162.241943 -71.842178 45.104683 0.569351 -0.822094 0.001359 
160.064575 -73.156914 44.754368 0.544370 -0.838844 0.001351 
158.841400 -73.895493 45.883339 0.531813 -0.846861 0.001346 
155.359787 -75.997757 47.265656 0.490829 -0.871255 0.001330 
162.392670 -71.751175 45.415230 0.570625 -0.821210 0.001362 
162.258255 -71.832329 45.860519 0.569351 -0.822094 0.001359 
157.987350 -74.411186 46.550892 0.520416 -0.853912 0.001345 
162.483688 -71.696205 42.732166 0.572458 -0.819933 0.001360 
162.301544 -71.806190 44.945488 0.569351 -0.822094 0.001359 
156.803833 -75.125809 47.208076 0.507781 -0.861485 0.001340 
158.334213 -74.201744 44.948902 0.525521 -0.850780 0.001344 
160.336319 -72.992836 44.325645 0.547504 -0.836802 0.001352 
160.239258 -73.051437 45.475792 0.547504 -0.836802 0.001352 
156.938919 -75.044243 46.986534 0.509765 -0.860313 0.001338 
157.172089 -74.903450 46.901470 0.512919 -0.858436 0.001339 
161.542007 -72.264816 45.903603 0.561268 -0.827633 0.001359 
159.324478 -73.603806 44.570004 0.536176 -0.844105 0.001351 
159.659439 -73.401550 44.937138 0.541234 -0.840871 0.001350 
157.459717 -74.729774 47.144665 0.516071 -0.856545 0.001340 
161.739319 -72.145676 45.988750 0.563126 -0.826370 0.001357 
158.009705 -74.397682 46.623203 0.522373 -0.852716 0.001343 
158.735092 -73.959679 45.166367 0.529877 -0.848073 0.001348 
157.463852 -74.727280 45.047070 0.516071 -0.856545 0.001340 
153.631332 -77.041428 47.192341 0.469832 -0.882755 0.001323 
160.429459 -72.936592 44.655758 0.548745 -0.835989 0.001355 
162.287613 -71.814606 44.474712 0.569351 -0.822094 0.001359 
161.879959 -72.060745 45.016335 0.564391 -0.825507 0.001360 
156.499741 -75.309433 46.435463 0.504619 -0.863341 0.001339 
159.809143 -73.311142 46.267265 0.542465 -0.840077 0.001353 
162.511490 -71.679420 44.606537 0.572458 -0.819933 0.001360 
155.987350 -75.618820 46.846893 0.498295 -0.867007 0.001336 
155.623520 -75.838509 45.894123 0.493986 -0.869469 0.001331 
155.751663 -75.761131 45.199867 0.495132 -0.868817 0.001335 
153.731201 -76.981125 45.865574 0.471891 -0.881656 0.001322 
153.105545 -77.358910 46.475727 0.463513 -0.886089 0.001321 
155.667648 -75.811859 45.641094 0.493986 -0.869469 0.001331 
159.007278 -73.795334 43.931614 0.533028 -0.846097 0.001349 
156.661972 -75.211472 44.698227 0.506611 -0.862174 0.001337 
152.796814 -77.545326 43.897903 0.460355 -0.887734 0.001319 
152.439224 -77.761238 42.897301 0.456129 -0.889912 0.001314 
161.631958 -72.210495 42.841858 0.563126 -0.826370 0.001357 
157.262863 -74.848640 42.933746 0.512919 -0.858436 0.001339 
156.168701 -75.509315 42.554440 0.500299 -0.865851 0.001334 
156.959457 -75.031845 43.158649 0.509765 -0.860313 0.001338 
153.776093 -76.954018 44.064640 0.471891 -0.881656 0.001322 
155.630417 -75.834335 43.655663 0.493986 -0.869469 0.001331 
157.586823 -74.653030 43.600243 0.517259 -0.855828 0.001344 
152.352020 -77.813904 43.348938 0.456129 -0.889912 0.001314 
160.315903 -73.005157 42.644451 0.547504 -0.836802 0.001352 
154.992004 -76.219826 44.151817 0.485642 -0.874156 0.001331 
152.590469 -77.669922 43.003910 0.459279 -0.888291 0.001316 
154.041763 -76.793594 46.150173 0.475046 -0.879960 0.001323 
157.695892 -74.587173 43.688560 0.517259 -0.855828 0.001344 
153.543457 -77.094498 43.760086 0.469832 -0.882755 0.001323 
152.677673 -77.617264 45.176296 0.459279 -0.888291 0.001316 
152.181366 -77.916939 42.575535 0.452981 -0.891519 0.001313 
158.115906 -74.333549 43.102234 0.522373 -0.852716 0.001343 
152.206406 -77.901825 44.131226 0.454044 -0.890978 0.001316 
153.205841 -77.298347 42.986153 0.465583 -0.885003 0.001319 
155.272736 -76.050316 44.796989 0.490829 -0.871255 0.001330 
155.023407 -76.200867 42.824287 0.487672 -0.873026 0.001329 
152.616043 -77.654472 47.065468 0.459279 -0.888291 0.001316 
154.057388 -76.784157 42.590450 0.476155 -0.879361 0.001326 
155.241699 -76.069054 45.822178 0.488806 -0.872392 0.001332 
153.477539 -77.134285 44.709942 0.468736 -0.883337 0.001320 
154.189484 -76.704407 43.908157 0.478202 -0.878249 0.001325 
158.798431 -73.921440 43.468067 0.529877 -0.848073 0.001348 
159.287018 -73.626419 43.927231 0.536176 -0.844105 0.001351 
152.148102 -77.937027 45.410927 0.452981 -0.891519 0.001313 
148.861557 -79.329262 46.023018 0.416342 -0.909207 0.001297 
150.526062 -78.624893 43.825573 0.435151 -0.900357 0.001307 
151.516602 -78.205727 42.899662 0.446689 -0.894688 0.001310 
151.150543 -78.360634 43.262718 0.441440 -0.897290 0.001310 
143.842468 -81.453178 47.311695 0.360674 -0.932691 0.001266 
149.747742 -78.954254 44.301201 0.425734 -0.904847 0.001302 
149.774292 -78.943016 44.389034 0.427862 -0.903843 0.001300 
149.117462 -79.220970 45.807678 0.419470 -0.907768 0.001299 
148.108719 -79.647842 47.098583 0.409130 -0.912475 0.001291 
148.410492 -79.520134 47.020302 0.412244 -0.911072 0.001292 
147.474869 -79.916061 47.126030 0.400751 -0.916186 0.001289 
148.947189 -79.293022 46.813213 0.418483 -0.908224 0.001296 
145.482391 -80.759216 46.464478 0.379080 -0.925363 0.001276 
145.721756 -80.657928 46.481918 0.382163 -0.924094 0.001278 
146.287308 -80.418602 47.376572 0.388343 -0.921514 0.001282 
145.896652 -80.583916 47.425655 0.384343 -0.923189 0.001277 
149.512558 -79.053780 44.569649 0.424733 -0.905318 0.001299 
147.828064 -79.766602 46.516830 0.406019 -0.913864 0.001289 
149.514099 -79.053131 45.513458 0.424733 -0.905318 0.001299 
148.271957 -79.578766 44.945015 0.410095 -0.912042 0.001294 
144.888412 -81.010574 47.115150 0.372047 -0.928213 0.001270 
151.899612 -78.043655 47.280693 0.450890 -0.892578 0.001315 
142.355057 -82.082603 47.028805 0.342448 -0.939536 0.001254 
148.197205 -79.610397 44.833523 0.409130 -0.912475 0.001291 
148.522888 -79.472572 44.551376 0.413217 -0.910632 0.001295 
146.919083 -80.151260 47.349522 0.394539 -0.918878 0.001285 
150.563599 -78.609009 45.232368 0.435151 -0.900357 0.001307 
151.835526 -78.070778 43.222271 0.449834 -0.893111 0.001311 
145.012863 -80.957909 46.133087 0.372926 -0.927860 0.001273 
151.877426 -78.053040 45.413361 0.449834 -0.893111 0.001311 
150.172424 -78.774544 43.532036 0.430994 -0.902354 0.001302 
148.726883 -79.386246 46.733692 0.415362 -0.909655 0.001294 
151.743591 -78.109680 44.138454 0.447738 -0.894164 0.001313 
146.131790 -80.484413 46.608101 0.387428 -0.921899 0.001279 
143.436401 -81.625015 46.765362 0.356781 -0.934187 0.001261 
147.669907 -79.833534 47.337646 0.403862 -0.914819 0.001290 
148.992249 -79.273956 47.153614 0.418483 -0.908224 0.001296 
199.589905 6.515455 40.870113 0.997224 0.074451 0.001049 
199.711563 3.729001 39.719749 0.999040 0.043791 0.001018 
199.847000 0.626999 39.463932 0.999960 0.008867 0.000985 
199.678833 4.478523 39.402935 0.998629 0.052343 0.001026 
199.675064 4.565151 40.063061 0.998623 0.052451 0.001028 
199.736145 3.165881 39.461239 0.999298 0.037461 0.001012 
199.598465 6.319487 40.586670 0.997389 0.072214 0.001047 
199.745758 2.945973 39.928581 0.999374 0.035367 0.001010 
199.558182 7.242104 39.556400 0.996509 0.083483 0.001057 
199.557968 7.247023 41.270821 0.996509 0.083483 0.001057 
117.883492 87.314072 46.567375 0.063217 0.997999 0.001036 
119.723091 87.155128 47.434807 0.083483 0.996509 0.001057 
120.703331 87.077858 51.129391 0.094960 0.995480 0.001067 
121.088654 87.027275 43.792400 0.099610 0.995026 0.001071 
118.143417 87.288383 45.282967 0.065552 0.997849 0.001041 
121.076889 87.036789 47.479385 0.099610 0.995026 0.001071 
118.889740 87.237068 51.363342 0.074451 0.997224 0.001049 
117.948303 87.303474 44.422474 0.063348 0.997991 0.001038 
120.914902 87.051376 47.662552 0.097281 0.995256 0.001069 
121.145424 87.039772 51.382256 0.099610 0.995026 0.001071 
122.526093 86.898872 42.642067 0.116148 0.993231 0.001085 
118.220619 87.282684 45.743355 0.067624 0.997710 0.001040 
119.563225 87.202377 61.899559 0.081212 0.996696 0.001055 
119.568382 87.158089 42.836624 0.083307 0.996523 0.001055 
121.070694 87.026466 42.756500 0.099610 0.995026 0.001071 
117.417862 87.346443 42.925941 0.058843 0.998267 0.001032 
119.011795 87.239052 56.869637 0.076536 0.997066 0.001048 
118.569656 87.263588 50.720222 0.069985 0.997548 0.001045 
118.856262 87.227173 45.785137 0.074296 0.997236 0.001046 
119.506981 87.189125 53.996151 0.081212 0.996696 0.001055 
121.102615 87.032364 46.535011 0.099610 0.995026 0.001071 
120.293686 87.113052 50.848190 0.090344 0.995910 0.001063 
120.901001 87.057510 49.801300 0.097281 0.995256 0.001069 
119.361763 87.208023 56.691978 0.078950 0.996878 0.001053 
120.056030 87.128876 48.684990 0.088049 0.996116 0.001061 
120.034546 87.121490 44.657021 0.088049 0.996116 0.001061 
121.779526 86.970665 45.457958 0.108776 0.994066 0.001077 
120.202660 87.104118 43.499866 0.090153 0.995927 0.001061 
122.393021 86.910362 42.577938 0.115898 0.993261 0.001083 
117.715477 87.322647 43.899193 0.061152 0.998128 0.001036 
120.443352 87.083076 43.506348 0.092648 0.995698 0.001065 
118.391640 87.280533 51.311722 0.067764 0.997701 0.001043 
119.106232 87.216263 50.552536 0.076696 0.997054 0.001051 
119.311729 87.195778 49.462585 0.078950 0.996878 0.001053 
118.723167 87.243324 47.745480 0.072214 0.997389 0.001047 
119.279671 87.186256 44.101250 0.078950 0.996878 0.001053 
120.001541 87.155060 57.997948 0.087863 0.996132 0.001059 
120.312180 87.111298 50.787888 0.090344 0.995910 0.001063 
118.905449 87.249550 57.389122 0.074451 0.997224 0.001049 
119.928162 87.137009 47.359737 0.085761 0.996315 0.001059 
119.345573 87.186455 46.698395 0.078950 0.996878 0.001053 
119.863129 87.163803 56.537037 0.085581 0.996331 0.001057 
121.090950 87.028061 44.218155 0.099610 0.995026 0.001071 
117.484665 87.344864 44.782867 0.058843 0.998267 0.001032 
119.620178 87.153633 42.870289 0.083307 0.996523 0.001055 
121.051651 87.050903 52.657169 0.099398 0.995047 0.001069 
119.560616 87.184334 53.952969 0.081212 0.996696 0.001055 
119.286140 87.185089 43.839478 0.078950 0.996878 0.001053 
121.652519 86.981178 45.197388 0.106647 0.994296 0.001077 
120.125999 87.110237 43.242184 0.090153 0.995927 0.001061 
119.289978 87.199745 50.359798 0.078950 0.996878 0.001053 
121.567154 86.992264 46.772488 0.106419 0.994321 0.001075 
119.930489 87.161865 58.252865 0.085761 0.996315 0.001059 
120.425766 87.108521 53.901634 0.092452 0.995717 0.001063 
120.567268 87.078621 46.281853 0.094759 0.995500 0.001065 
121.492828 87.005753 49.808525 0.104293 0.994546 0.001075 
118.338127 87.280258 49.159851 0.067764 0.997701 0.001043 
119.529510 87.177673 49.875496 0.081212 0.996696 0.001055 
122.322517 86.916519 42.569080 0.113760 0.993508 0.001083 
119.941162 87.139565 48.964771 0.085761 0.996315 0.001059 
121.140900 87.035378 49.302208 0.099610 0.995026 0.001071 
120.595436 87.069504 43.389359 0.094759 0.995500 0.001065 
120.547958 87.082672 47.308300 0.094759 0.995500 0.001065 
121.287910 87.025581 50.635067 0.101947 0.994789 0.001073 
120.377411 87.100998 48.789352 0.092452 0.995717 0.001063 
120.548721 87.072472 42.905697 0.094759 0.995500 0.001065 
118.597946 87.265739 52.729576 0.072063 0.997400 0.001044 
119.408966 87.172691 43.125027 0.081042 0.996710 0.001052 
118.558342 -87.247131 43.416210 0.069985 -0.997548 0.001045 
118.648605 -87.240440 44.180374 0.072063 -0.997400 0.001044 
121.648987 -86.975685 42.750656 0.106647 -0.994296 0.001077 
118.590492 -87.272049 60.936184 0.069985 -0.997548 0.001045 
120.153648 -87.119347 50.864456 0.088049 -0.996116 0.001061 
121.503540 -86.995956 47.524353 0.104293 -0.994546 0.001075 
119.891129 -87.145195 52.682133 0.085761 -0.996315 0.001059 
118.484955 -87.259872 47.409630 0.069985 -0.997548 0.001045 
120.780815 -87.055145 44.968277 0.097074 -0.995277 0.001067 
118.975609 -87.233139 57.644211 0.074451 -0.997224 0.001049 
117.941292 -87.310715 49.479118 0.063348 -0.997991 0.001038 
119.198509 -87.198135 47.847355 0.078785 -0.996891 0.001050 
118.720474 -87.231934 42.775280 0.072214 -0.997389 0.001047 
118.764336 -87.238831 49.558559 0.072214 -0.997389 0.001047 
120.789635 -87.055916 45.940929 0.097074 -0.995277 0.001067 
118.068535 -87.295525 46.917530 0.065416 -0.997858 0.001038 
119.403671 -87.174675 44.365604 0.081042 -0.996710 0.001052 
120.173798 -87.120407 52.646507 0.090153 -0.995927 0.001061 
120.746864 -87.060631 46.558830 0.097074 -0.995277 0.001067 
119.396591 -87.193214 55.687748 0.081042 -0.996710 0.001052 
119.119736 -87.213249 53.041855 0.076696 -0.997054 0.001051 
117.977119 -87.312225 52.415577 0.063348 -0.997991 0.001038 
118.492790 -87.262611 49.574657 0.069985 -0.997548 0.001045 
120.577904 -87.077347 47.777817 0.094759 -0.995500 0.001065 
119.433174 -87.180809 49.872173 0.081042 -0.996710 0.001052 
120.525307 -87.078705 45.732887 0.092648 -0.995698 0.001065 
120.596222 -87.075806 47.820107 0.094759 -0.995500 0.001065 
117.345589 -87.353630 43.664921 0.056785 -0.998386 0.001032 
118.666595 -87.264519 60.388489 0.072063 -0.997400 0.001044 
121.254189 -87.011108 43.310658 0.101947 -0.994789 0.001073 
118.588463 -87.268623 58.662079 0.069985 -0.997548 0.001045 
117.765121 -87.319946 45.575291 0.061152 -0.998128 0.001036 
120.346802 -87.098053 48.090012 0.092452 -0.995717 0.001063 
118.518166 -87.267899 54.316288 0.069985 -0.997548 0.001045 
118.135117 -87.308563 58.837029 0.065416 -0.997858 0.001038 
119.530998 -87.173645 50.754173 0.081212 -0.996696 0.001055 
118.976837 -87.211449 44.008251 0.076536 -0.997066 0.001048 
118.353638 -87.289055 58.591423 0.067764 -0.997701 0.001043 
120.146309 -87.122276 52.308228 0.088049 -0.996116 0.001061 
117.752296 -87.320061 44.941582 0.061152 -0.998128 0.001036 
118.570137 -87.272911 60.361351 0.069985 -0.997548 0.001045 
119.120995 -87.208557 50.145393 0.076696 -0.997054 0.001051 
121.599625 -86.987076 47.222092 0.106419 -0.994321 0.001075 
118.410324 -87.263237 45.407841 0.069839 -0.997558 0.001042 
117.682976 -87.324051 43.626328 0.061026 -0.998136 0.001034 
119.717384 -87.147285 44.402744 0.083483 -0.996509 0.001057 
118.501228 -87.257065 46.538029 0.069985 -0.997548 0.001045 
118.588379 -87.260460 53.500645 0.069985 -0.997548 0.001045 
118.257088 -87.286118 51.396206 0.067624 -0.997710 0.001040 
121.047165 -87.030495 44.119003 0.099610 -0.995026 0.001071 
120.559814 -87.086685 52.677650 0.092648 -0.995698 0.001065 
118.761765 -87.236732 48.091003 0.072214 -0.997389 0.001047 
118.095398 -87.310478 57.853619 0.065416 -0.997858 0.001038 
118.886520 -87.235336 54.105614 0.074296 -0.997236 0.001046 
121.359436 -87.004250 44.794411 0.104070 -0.994569 0.001073 
118.943924 -87.226173 51.488140 0.074451 -0.997224 0.001049 
119.064545 -87.209595 47.680935 0.076696 -0.997054 0.001051 
120.391823 -87.092583 47.118763 0.092452 -0.995717 0.001063 
120.833107 -87.057846 49.566986 0.097074 -0.995277 0.001067 
119.941818 -87.136261 49.842384 0.085761 -0.996315 0.001059 
121.679138 -86.980774 47.635849 0.106647 -0.994296 0.001077 
120.432022 -87.087105 45.879101 0.092452 -0.995717 0.001063 
121.583054 -86.988907 47.463379 0.106419 -0.994321 0.001075 
118.833656 -87.225616 45.038776 0.074296 -0.997236 0.001046 
121.659218 -86.977684 44.579773 0.106647 -0.994296 0.001077 
118.899338 -87.225067 48.325974 0.074451 -0.997224 0.001049 
119.089996 -87.223785 58.056763 0.076536 -0.997066 0.001048 
119.075493 -87.207329 46.854591 0.076696 -0.997054 0.001051 
119.895233 -87.141609 50.645245 0.085761 -0.996315 0.001059 
199.613358 -5.978457 39.890533 0.997701 -0.067764 0.001043 
199.548706 -7.459183 40.495796 0.996315 -0.085761 0.001059 
199.561447 -7.167415 40.068378 0.996523 -0.083307 0.001055 
199.632782 -5.533266 39.868717 0.997991 -0.063348 0.001038 
199.700806 -3.975501 39.692116 0.998945 -0.045917 0.001020 
199.542542 -7.600211 41.008709 0.996132 -0.087863 0.001059 
199.605942 -6.148123 40.425823 0.997548 -0.069985 0.001045 
199.552917 -7.362680 40.680058 0.996331 -0.085581 0.001057 
199.612778 -5.991675 40.501190 0.997558 -0.069839 0.001042 
199.595978 -6.376286 39.899868 0.997236 -0.074296 0.001046 
195.438934 7.313768 41.784569 -0.081405 0.954896 -0.285564 
197.276001 7.527968 41.926762 -0.078370 0.900566 -0.427597 
198.668259 7.730444 42.069572 -0.072729 0.817129 -0.571848 
195.520966 7.553730 42.189636 -0.061923 0.718591 -0.692670 
195.914978 7.735008 42.315331 -0.049313 0.576258 -0.815779 
198.299805 8.002212 42.351574 -0.045723 0.516807 -0.854880 
196.295425 7.901033 42.391399 -0.039011 0.445258 -0.894552 
197.797531 8.390490 42.491478 -0.007458 0.086305 -0.996241 
196.352966 12.831669 42.500000 0.000978 0.000978 -0.999999 
195.204269 10.073109 42.500000 0.000978 0.000978 -0.999999 
194.402390 12.699160 42.500000 0.000978 0.000978 -0.999999 
196.229034 9.782598 42.500000 0.000978 0.000978 -0.999999 
197.282867 10.986531 42.500000 0.000978 0.000978 -0.999999 
198.151474 8.756473 42.500000 0.000978 0.000978 -0.999999 
195.268707 14.852272 42.500000 0.000978 0.000978 -0.999999 
195.957016 13.982450 42.500000 0.000978 0.000978 -0.999999 
197.437515 8.957164 42.500000 0.000978 0.000978 -0.999999 
196.571060 10.336713 42.500000 0.000978 0.000978 -0.999999 
197.801300 11.139234 42.500000 0.000978 0.000978 -0.999999 
194.817520 9.439898 42.500000 0.000978 0.000978 -0.999999 
194.907013 14.928799 42.500000 0.000978 0.000978 -0.999999 
193.087326 16.961191 42.500000 0.000978 0.000978 -0.999999 
197.748703 9.748032 42.500000 0.000978 0.000978 -0.999999 
196.390640 9.138390 42.500000 0.000978 0.000978 -0.999999 
193.330063 15.481320 42.500000 0.000978 0.000978 -0.999999 
193.892502 14.998775 42.500000 0.000978 0.000978 -0.999999 
195.058670 10.991669 42.500000 0.000978 0.000978 -0.999999 
195.190552 11.005339 42.500000 0.000978 0.000978 -0.999999 
197.221939 11.102965 42.500000 0.000978 0.000978 -0.999999 
197.136993 9.985494 42.500000 0.000978 0.000978 -0.999999 
197.904099 9.289680 42.500000 0.000978 0.000978 -0.999999 
194.478958 11.731182 42.500000 0.000978 0.000978 -0.999999 
194.049301 14.366429 42.500000 0.000978 0.000978 -0.999999 
195.148422 9.956110 42.500000 0.000978 0.000978 -0.999999 
195.221832 14.013939 42.500000 0.000978 0.000978 -0.999999 
194.970581 15.694317 42.500000 0.000978 0.000978 -0.999999 
196.422226 10.473665 42.500000 0.000978 0.000978 -0.999999 
196.706467 12.558607 42.500000 0.000978 0.000978 -0.999999 
195.236588 10.618769 42.500000 0.000978 0.000978 -0.999999 
194.988449 15.409865 42.500000 0.000978 0.000978 -0.999999 
194.137589 15.442463 42.500000 0.000978 0.000978 -0.999999 
194.955688 10.951353 42.500000 0.000978 0.000978 -0.999999 
195.656296 8.636638 42.500000 0.000978 0.000978 -0.999999 
195.438004 18.098797 42.500000 0.000978 0.000978 -0.999999 
198.328827 11.944117 42.500000 0.000978 0.000978 -0.999999 
197.218155 14.541674 42.500000 0.000978 0.000978 -0.999999 
197.051239 13.453819 42.500000 0.000978 0.000978 -0.999999 
197.175781 16.650303 42.500000 0.000978 0.000978 -0.999999 
196.147324 15.543463 42.500000 0.000978 0.000978 -0.999999 
193.966034 18.468264 42.500000 0.000978 0.000978 -0.999999 
197.993317 11.949455 42.500000 0.000978 0.000978 -0.999999 
199.249527 9.664928 42.500000 0.000978 0.000978 -0.999999 
195.890869 19.498318 42.500000 0.000978 0.000978 -0.999999 
197.269348 12.676566 42.500000 0.000978 0.000978 -0.999999 
195.277451 15.887193 42.500000 0.000978 0.000978 -0.999999 
198.434677 12.075561 42.500000 0.000978 0.000978 -0.999999 
197.826645 16.534012 42.500000 0.000978 0.000978 -0.999999 
197.396194 15.418736 42.500000 0.000978 0.000978 -0.999999 
196.680756 13.767537 42.500000 0.000978 0.000978 -0.999999 
196.507080 15.240681 42.500000 0.000978 0.000978 -0.999999 
196.909500 12.804511 42.500000 0.000978 0.000978 -0.999999 
197.094803 15.996397 42.500000 0.000978 0.000978 -0.999999 
197.639374 13.478490 42.500000 0.000978 0.000978 -0.999999 
197.507294 17.471048 42.500000 0.000978 0.000978 -0.999999 
196.778305 15.607660 42.500000 0.000978 0.000978 -0.999999 
197.525513 18.594418 42.500000 0.000978 0.000978 -0.999999 
198.180756 14.829500 42.500000 0.000978 0.000978 -0.999999 
194.630661 18.481094 42.500000 0.000978 0.000978 -0.999999 
197.279800 14.139095 42.500000 0.000978 0.000978 -0.999999 
197.782242 14.519840 42.500000 0.000978 0.000978 -0.999999 
195.089355 20.376785 42.500000 0.000978 0.000978 -0.999999 
193.331253 18.937445 42.500000 0.000978 0.000978 -0.999999 
198.792023 11.295445 42.500000 0.000978 0.000978 -0.999999 
198.836624 11.158998 42.500000 0.000978 0.000978 -0.999999 
193.850677 19.268530 42.500000 0.000978 0.000978 -0.999999 
195.751282 16.858839 42.500000 0.000978 0.000978 -0.999999 
197.520386 17.983459 42.500000 0.000978 0.000978 -0.999999 
196.742584 18.973808 42.500000 0.000978 0.000978 -0.999999 
194.648499 17.136143 42.500000 0.000978 0.000978 -0.999999 
196.657394 16.436155 42.500000 0.000978 0.000978 -0.999999 
191.765717 24.472658 42.500000 0.000978 0.000978 -0.999999 
191.593369 26.615854 42.500000 0.000978 0.000978 -0.999999 
191.043457 25.857962 42.500000 0.000978 0.000978 -0.999999 
194.856064 20.548225 42.500000 0.000978 0.000978 -0.999999 
191.795303 26.049606 42.500000 0.000978 0.000978 -0.999999 
192.493271 25.758945 42.500000 0.000978 0.000978 -0.999999 
196.028015 21.759930 42.500000 0.000978 0.000978 -0.999999 
193.724808 21.240608 42.500000 0.000978 0.000978 -0.999999 
189.827362 28.184681 42.500000 0.000978 0.000978 -0.999999 
193.331421 24.683874 42.500000 0.000978 0.000978 -0.999999 
191.298492 24.949181 42.500000 0.000978 0.000978 -0.999999 
193.516113 23.987253 42.500000 0.000978 0.000978 -0.999999 
193.899963 23.212528 42.500000 0.000978 0.000978 -0.999999 
191.124390 24.373335 42.500000 0.000978 0.000978 -0.999999 
192.321747 23.298744 42.500000 0.000978 0.000978 -0.999999 
194.008713 21.472315 42.500000 0.000978 0.000978 -0.999999 
190.486801 28.147879 42.500000 0.000978 0.000978 -0.999999 
193.984360 23.848997 42.500000 0.000978 0.000978 -0.999999 
194.474365 21.826859 42.500000 0.000978 0.000978 -0.999999 
192.726791 23.006124 42.500000 0.000978 0.000978 -0.999999 
196.403824 21.311401 42.500000 0.000978 0.000978 -0.999999 
190.200546 28.508198 42.500000 0.000978 0.000978 -0.999999 
193.839218 22.131727 42.500000 0.000978 0.000978 -0.999999 
196.113266 21.257093 42.500000 0.000978 0.000978 -0.999999 
196.771667 21.586540 42.500000 0.000978 0.000978 -0.999999 
193.069412 25.105330 42.500000 0.000978 0.000978 -0.999999 
191.596603 26.558064 42.500000 0.000978 0.000978 -0.999999 
193.068817 21.922163 42.500000 0.000978 0.000978 -0.999999 
193.030304 22.909662 42.500000 0.000978 0.000978 -0.999999 
193.093491 19.973053 42.500000 0.000978 0.000978 -0.999999 
189.354218 29.415997 42.500000 0.000978 0.000978 -0.999999 
190.776215 26.161785 42.500000 0.000978 0.000978 -0.999999 
191.537964 27.515476 42.500000 0.000978 0.000978 -0.999999 
192.896240 20.054998 42.500000 0.000978 0.000978 -0.999999 
192.578247 23.201370 42.500000 0.000978 0.000978 -0.999999 
192.111237 27.495440 42.500000 0.000978 0.000978 -0.999999 
191.613205 31.729401 42.500000 0.000978 0.000978 -0.999999 
194.351288 28.493969 42.500000 0.000978 0.000978 -0.999999 
194.459122 24.818468 42.500000 0.000978 0.000978 -0.999999 
193.864044 27.723963 42.500000 0.000978 0.000978 -0.999999 
195.925644 23.160318 42.500000 0.000978 0.000978 -0.999999 
193.835037 26.485569 42.500000 0.000978 0.000978 -0.999999 
192.833313 31.484472 42.500000 0.000978 0.000978 -0.999999 
192.482147 27.166496 42.500000 0.000978 0.000978 -0.999999 
195.505249 23.787355 42.500000 0.000978 0.000978 -0.999999 
190.153183 30.127138 42.500000 0.000978 0.000978 -0.999999 
195.761047 24.504105 42.500000 0.000978 0.000978 -0.999999 
196.220566 22.340351 42.500000 0.000978 0.000978 -0.999999 
192.888184 28.641335 42.500000 0.000978 0.000978 -0.999999 
193.305176 29.546993 42.500000 0.000978 0.000978 -0.999999 
194.436859 28.880985 42.500000 0.000978 0.000978 -0.999999 
193.712463 29.582697 42.500000 0.000978 0.000978 -0.999999 
190.950546 31.432524 42.500000 0.000978 0.000978 -0.999999 
193.113052 28.540077 42.500000 0.000978 0.000978 -0.999999 
194.350555 24.866308 42.500000 0.000978 0.000978 -0.999999 
194.913788 24.289021 42.500000 0.000978 0.000978 -0.999999 
193.253754 30.242271 42.500000 0.000978 0.000978 -0.999999 
196.204758 23.291210 42.500000 0.000978 0.000978 -0.999999 
192.713959 27.358690 42.500000 0.000978 0.000978 -0.999999 
194.252289 28.478390 42.500000 0.000978 0.000978 -0.999999 
193.373596 27.557207 42.500000 0.000978 0.000978 -0.999999 
196.007980 24.522810 42.500000 0.000978 0.000978 -0.999999 
191.498795 29.836435 42.500000 0.000978 0.000978 -0.999999 
196.459183 22.668863 42.500000 0.000978 0.000978 -0.999999 
194.813126 26.199780 42.500000 0.000978 0.000978 -0.999999 
190.225601 30.340803 42.500000 0.000978 0.000978 -0.999999 
194.375305 26.956680 42.500000 0.000978 0.000978 -0.999999 
189.508377 30.483820 42.500000 0.000978 0.000978 -0.999999 
191.462234 29.130945 42.500000 0.000978 0.000978 -0.999999 
190.391251 30.205484 42.500000 0.000978 0.000978 -0.999999 
192.610611 30.970600 42.500000 0.000978 0.000978 -0.999999 
193.741867 30.667809 42.500000 0.000978 0.000978 -0.999999 
188.341690 34.738487 42.500000 0.000978 0.000978 -0.999999 
185.309845 39.313896 42.500000 0.000978 0.000978 -0.999999 
191.518341 34.070724 42.500000 0.000978 0.000978 -0.999999 
185.168961 39.837200 42.500000 0.000978 0.000978 -0.999999 
189.703018 33.704716 42.500000 0.000978 0.000978 -0.999999 
186.152512 38.953632 42.500000 0.000978 0.000978 -0.999999 
188.724533 34.592854 42.500000 0.000978 0.000978 -0.999999 
188.807632 33.030491 42.500000 0.000978 0.000978 -0.999999 
