ply
format ascii 1.0
comment Created by CloudCompare v2.12.0 (Kyiv)
comment Created 2023-02-04T20:19:45
obj_info Generated by CloudCompare!
element vertex 809
property float x
property float y
property float z
property float nx
property float ny
property float nz
end_header
3.040136 1.404313 39.113575 -0.907768 -0.419470 0.001299 
3.214302 0.983840 57.152115 -0.955752 -0.294171 0.001221 
2.998700 1.504348 26.651054 -0.893111 -0.449834 0.001311 
2.473800 2.272695 2.560141 -0.736866 -0.676037 0.001382 
2.811847 1.832144 13.400374 -0.838040 -0.545606 0.001354 
2.801337 1.845840 3.418347 -0.834745 -0.550634 0.001353 
2.491726 2.249333 34.946911 -0.742124 -0.670261 0.001382 
2.539705 2.186806 18.919817 -0.757597 -0.652721 0.001380 
2.592753 2.117672 50.446293 -0.775059 -0.631887 0.001377 
2.354526 2.411009 26.634409 -0.698755 -0.715359 0.001384 
2.172687 2.550538 27.939241 -0.648407 -0.761293 0.001377 
2.314381 2.441813 0.357110 -0.687475 -0.726206 0.001383 
1.839352 2.806316 15.068926 -0.548745 -0.835989 0.001355 
2.262159 2.481884 54.825642 -0.673154 -0.739501 0.001382 
1.751875 2.873440 44.347477 -0.520416 -0.853912 0.001345 
1.514432 2.994523 0.320661 -0.450890 -0.892578 0.001315 
1.633889 2.945042 34.923550 -0.485642 -0.874156 0.001331 
1.471280 3.012397 34.667374 -0.438294 -0.898831 0.001308 
1.566106 2.973119 50.499775 -0.466672 -0.884429 0.001322 
0.974904 3.218003 38.911980 -0.291258 -0.956644 0.001219 
1.227493 3.113377 30.642845 -0.366791 -0.930303 0.001269 
0.873448 3.260009 49.903957 -0.259673 -0.965696 0.001197 
0.706472 3.281991 42.136421 -0.210402 -0.977614 0.001162 
0.248997 3.342219 12.038983 -0.074296 -0.997236 0.001046 
0.497393 3.309517 33.633053 -0.147960 -0.988993 0.001112 
0.245580 3.342669 48.551556 -0.072214 -0.997389 0.001047 
0.146070 3.355769 23.612701 -0.043791 -0.999040 0.001018 
-0.060415 3.367046 43.762245 0.018902 -0.999821 0.000995 
-0.118151 3.359445 5.515475 0.035439 -0.999371 0.001013 
-0.147639 3.355563 17.503496 0.045917 -0.998945 0.001020 
-0.580646 3.298557 41.784370 0.173397 -0.984851 0.001133 
-0.478843 3.311959 47.447258 0.142973 -0.989726 0.001108 
-0.510632 3.307774 34.811417 0.152980 -0.988229 0.001117 
-1.057181 3.183923 20.821297 0.315485 -0.948930 0.001237 
-1.181621 3.132378 0.357295 0.353743 -0.935342 0.001259 
-1.352895 3.061434 19.818695 0.403862 -0.914819 0.001290 
-1.626522 2.948094 49.510422 0.482479 -0.875906 0.001329 
-1.606573 2.956357 56.573936 0.478202 -0.878249 0.001325 
-1.563401 2.974240 40.656769 0.465583 -0.885003 0.001319 
-1.747547 2.876760 48.797279 0.519223 -0.854638 0.001342 
-1.773218 2.857063 4.593501 0.526725 -0.850035 0.001347 
-1.802037 2.834948 14.076089 0.536176 -0.844105 0.001351 
-2.094938 2.610197 27.621954 0.625868 -0.779928 0.001376 
-2.161335 2.559249 33.250679 0.645448 -0.763803 0.001376 
-2.300460 2.452495 18.926702 0.684630 -0.728889 0.001383 
-2.499690 2.238954 39.930359 0.744734 -0.667359 0.001382 
-2.489402 2.252362 0.683082 0.742124 -0.670261 0.001382 
-2.459918 2.290786 31.834585 0.731560 -0.681775 0.001383 
-2.647008 2.046966 46.812576 0.790530 -0.612421 0.001370 
-2.781920 1.871145 44.583988 0.829744 -0.558142 0.001358 
-2.831415 1.806642 46.647095 0.842882 -0.538096 0.001349 
-3.109299 1.237338 24.103567 0.929088 -0.369856 0.001271 
-3.135676 1.173659 17.224031 0.936173 -0.351537 0.001260 
-3.033666 1.419932 0.635053 0.905318 -0.424733 0.001299 
-3.255109 0.885322 4.017483 0.964763 -0.263117 0.001201 
-3.169137 1.092877 31.019279 0.945148 -0.326641 0.001242 
-3.139017 1.165593 38.453491 0.937307 -0.348502 0.001258 
-3.297192 0.591010 5.473286 0.984392 -0.175987 0.001135 
-3.286773 0.670153 13.117331 0.979863 -0.199666 0.001154 
-3.341379 0.255377 10.157461 0.997066 -0.076536 0.001048 
-3.370511 0.034095 35.265549 0.999960 -0.008884 0.000987 
-3.299811 0.571121 53.017014 0.985302 -0.170816 0.001131 
-3.332341 0.324029 35.793461 0.995277 -0.097074 0.001067 
-3.296625 -0.595322 6.988595 0.983924 0.178585 0.001137 
-3.358653 -0.124171 9.085853 0.999295 0.037537 0.001015 
-3.351823 -0.176044 44.526962 0.998623 0.052451 0.001028 
-3.294399 -0.612231 18.157839 0.982962 0.183806 0.001142 
-3.305192 -0.530242 43.172890 0.987081 0.160219 0.001120 
-3.273263 -0.772771 8.399655 0.972780 0.231726 0.001176 
-3.187392 -1.048804 14.982574 0.949911 0.312519 0.001235 
-3.247722 -0.903156 51.466148 0.963188 0.268825 0.001205 
-3.186577 -1.050774 5.339918 0.949175 0.314746 0.001234 
-2.931536 -1.666496 57.200577 0.869469 0.493986 0.001331 
-2.933227 -1.662415 13.341278 0.869469 0.493986 0.001331 
-2.971148 -1.570865 46.584759 0.883337 0.468736 0.001320 
31.802780 -1.214677 33.490505 0.215818 0.976433 0.001167 
32.449730 -1.184566 32.986290 -0.305890 0.952066 0.001228 
32.826817 -0.982202 28.079350 -0.609379 0.792878 0.001369 
33.150215 -0.629406 30.845070 -0.863341 0.504619 0.001339 
33.190685 -0.535466 35.316921 -0.901868 0.432009 0.001305 
32.969589 0.864808 30.174965 -0.720806 -0.693136 0.001384 
31.497751 1.103942 31.197300 0.460355 -0.887734 0.001319 
30.882584 -0.369206 34.249577 0.954848 0.297091 0.001223 
16.079458 -0.743490 33.603451 0.799835 0.600218 0.001367 
17.057316 -1.248187 34.732903 0.012857 0.999917 0.000989 
17.905577 -0.921767 29.489126 -0.671779 0.740750 0.001379 
18.240854 -0.414345 32.912113 -0.941995 0.335625 0.001248 
18.292652 0.215846 31.269289 -0.984851 -0.173397 0.001133 
17.872467 0.947178 30.344683 -0.645448 -0.763803 0.001376 
16.643974 1.164510 33.071598 0.344659 -0.938727 0.001253 
16.554924 1.127624 32.605408 0.416342 -0.909207 0.001297 
16.183121 0.878592 32.908520 0.711237 -0.702951 0.001381 
15.956629 0.547971 30.472082 0.897290 -0.441440 0.001310 
15.835584 -0.110258 29.210220 0.995927 0.090153 0.001061 
15.889570 -0.386073 29.342577 0.950151 0.311788 0.001232 
21.477926 -1.095725 28.152668 0.476155 0.879361 0.001326 
21.662048 -1.171992 32.497635 0.330406 0.943838 0.001247 
21.770514 -1.210429 33.783886 0.242814 0.970072 0.001184 
22.103138 -1.245776 30.513988 -0.025017 0.999686 0.001001 
23.051664 -0.757841 28.829998 -0.790530 0.612421 0.001370 
23.310579 -0.079661 31.661709 -0.997858 0.065416 0.001038 
21.917233 1.229750 37.414600 0.125512 -0.992091 0.001091 
20.862621 0.315624 32.509087 0.967197 -0.254023 0.001193 
20.840422 0.147015 36.986130 0.992948 -0.118545 0.001088 
20.919762 -0.458960 35.823219 0.929088 0.369856 0.001271 
12.447818 1.191169 37.345737 -0.300720 -0.953712 0.001227 
13.291699 0.230232 28.086803 -0.982547 -0.186011 0.001141 
13.216158 -0.475941 28.043470 -0.924094 0.382163 0.001278 
12.912470 -0.913967 33.359329 -0.677534 0.735490 0.001380 
12.305490 -1.218982 28.654753 -0.188635 0.982047 0.001143 
11.522548 -1.116557 34.816574 0.441440 0.897290 0.001310 
10.870122 0.331447 30.696314 0.963981 -0.265967 0.001203 
11.380361 1.035270 35.987949 0.555013 -0.831841 0.001357 
26.390368 -1.039788 33.628742 0.547504 0.836802 0.001352 
26.956774 -1.234951 28.275219 0.092648 0.995698 0.001065 
27.018385 -1.243062 37.053993 0.043791 0.999040 0.001018 
27.282955 -1.222102 37.205242 -0.170816 0.985302 0.001131 
27.917166 -0.912875 37.001770 -0.680398 0.732842 0.001380 
28.312616 0.064195 30.330603 -0.998734 -0.050296 0.001026 
27.579872 1.130664 30.661413 -0.410095 -0.912042 0.001294 
26.867479 1.223200 28.847891 0.165311 -0.986241 0.001125 
26.598186 1.145544 33.068531 0.382163 -0.924094 0.001278 
25.888626 0.383799 32.824829 0.950879 -0.309560 0.001233 
25.858047 -0.280888 28.490831 0.974073 0.226229 0.001172 
25.982897 -0.611384 27.937372 0.871255 0.490829 0.001330 
5.758525 -5.303301 40.565083 0.000978 -0.999999 0.000978 
5.682519 -5.303301 27.219540 0.000978 -0.999999 0.000978 
5.892428 -5.303301 30.776875 0.000978 -0.999999 0.000978 
7.289495 -5.303301 34.047264 0.000978 -0.999999 0.000978 
8.906792 -5.303301 34.707657 0.000978 -0.999999 0.000978 
9.158739 -5.303301 29.842922 0.000978 -0.999999 0.000978 
9.742316 -5.303301 33.352890 0.000978 -0.999999 0.000978 
11.017084 -5.303301 35.905876 0.000978 -0.999999 0.000978 
11.214232 -5.303301 33.758263 0.000978 -0.999999 0.000978 
22.435799 -5.303301 33.680332 0.000978 -0.999999 0.000978 
55.983925 -5.303301 33.548214 0.000978 -0.999999 0.000978 
23.042841 -5.303301 35.589142 0.000978 -0.999999 0.000978 
21.392353 -5.303301 33.558052 0.000978 -0.999999 0.000978 
19.808289 -5.303301 30.336395 0.000978 -0.999999 0.000978 
12.824529 -5.303301 30.440165 0.000978 -0.999999 0.000978 
21.202667 -5.303301 34.423031 0.000978 -0.999999 0.000978 
26.941593 -5.303301 29.653559 0.000978 -0.999999 0.000978 
25.337021 -5.303301 31.125566 0.000978 -0.999999 0.000978 
18.110966 -5.303301 31.595781 0.000978 -0.999999 0.000978 
22.082108 -5.303301 36.385002 0.000978 -0.999999 0.000978 
34.893845 -5.303301 32.221653 0.000978 -0.999999 0.000978 
33.359085 -5.303301 33.626759 0.000978 -0.999999 0.000978 
20.446737 -5.303301 29.202490 0.000978 -0.999999 0.000978 
16.506809 -5.303301 36.623810 0.000978 -0.999999 0.000978 
30.486988 -5.303301 32.997917 0.000978 -0.999999 0.000978 
34.073433 -5.303301 31.142113 0.000978 -0.999999 0.000978 
43.880203 -5.303301 30.914488 0.000978 -0.999999 0.000978 
50.808113 -5.303301 31.877640 0.000978 -0.999999 0.000978 
13.008629 -5.303301 33.236423 0.000978 -0.999999 0.000978 
36.756264 -5.303301 34.038364 0.000978 -0.999999 0.000978 
32.344078 -5.303301 29.898270 0.000978 -0.999999 0.000978 
36.897175 -5.303301 32.950794 0.000978 -0.999999 0.000978 
50.965179 -5.303301 33.023281 0.000978 -0.999999 0.000978 
20.663603 -5.303301 33.564251 0.000978 -0.999999 0.000978 
46.689796 -5.303301 32.634571 0.000978 -0.999999 0.000978 
16.538252 -5.303301 37.013496 0.000978 -0.999999 0.000978 
34.264923 -5.303301 34.913834 0.000978 -0.999999 0.000978 
35.822029 -5.303301 34.594013 0.000978 -0.999999 0.000978 
41.497643 -5.303301 31.728523 0.000978 -0.999999 0.000978 
40.110611 -5.303301 33.922085 0.000978 -0.999999 0.000978 
39.517593 -5.303301 31.862473 0.000978 -0.999999 0.000978 
25.299591 -5.303301 33.754925 0.000978 -0.999999 0.000978 
47.928932 -5.303301 32.323288 0.000978 -0.999999 0.000978 
52.971046 -5.303301 30.992460 0.000978 -0.999999 0.000978 
53.664284 -5.303301 28.990967 0.000978 -0.999999 0.000978 
53.608528 -5.303301 30.977652 0.000978 -0.999999 0.000978 
68.020409 -5.303301 29.256071 0.000978 -0.999999 0.000978 
23.041559 -5.303301 28.527483 0.000978 -0.999999 0.000978 
87.439713 -5.303301 27.595407 0.000978 -0.999999 0.000978 
46.099537 -5.303301 29.427183 0.000978 -0.999999 0.000978 
88.020744 -5.303301 28.228060 0.000978 -0.999999 0.000978 
76.075653 -5.303301 27.691570 0.000978 -0.999999 0.000978 
71.355743 -5.303301 28.511475 0.000978 -0.999999 0.000978 
61.004688 -5.303301 30.445213 0.000978 -0.999999 0.000978 
62.474060 -5.303301 28.337122 0.000978 -0.999999 0.000978 
91.023705 -5.303301 27.899561 0.000978 -0.999999 0.000978 
78.276306 -5.303301 28.842299 0.000978 -0.999999 0.000978 
36.913105 -5.303301 28.782434 0.000978 -0.999999 0.000978 
64.128326 -5.303301 31.366148 0.000978 -0.999999 0.000978 
59.295349 -5.303301 28.004429 0.000978 -0.999999 0.000978 
88.691536 -5.303301 27.985371 0.000978 -0.999999 0.000978 
72.469315 -5.303301 27.591135 0.000978 -0.999999 0.000978 
46.335766 -5.303301 29.313753 0.000978 -0.999999 0.000978 
65.504898 -5.303301 29.877701 0.000978 -0.999999 0.000978 
42.746975 -5.303301 28.591854 0.000978 -0.999999 0.000978 
62.417728 -5.303301 31.155727 0.000978 -0.999999 0.000978 
56.569321 -5.303301 29.491680 0.000978 -0.999999 0.000978 
61.883583 -5.303301 28.569374 0.000978 -0.999999 0.000978 
52.861168 -5.303301 29.804663 0.000978 -0.999999 0.000978 
46.186417 -5.303301 29.588039 0.000978 -0.999999 0.000978 
100.382416 -5.303301 28.862623 0.000978 -0.999999 0.000978 
90.210197 -5.303301 29.251356 0.000978 -0.999999 0.000978 
94.295341 -5.303301 28.679295 0.000978 -0.999999 0.000978 
81.651154 -5.303301 30.412504 0.000978 -0.999999 0.000978 
98.411552 -5.303301 29.800150 0.000978 -0.999999 0.000978 
86.566185 -5.303301 30.773020 0.000978 -0.999999 0.000978 
84.991379 -5.303301 31.116737 0.000978 -0.999999 0.000978 
96.708267 -5.303301 30.560472 0.000978 -0.999999 0.000978 
91.932014 -5.303301 31.200325 0.000978 -0.999999 0.000978 
99.961815 -5.303301 30.913803 0.000978 -0.999999 0.000978 
84.410339 -5.303301 31.831383 0.000978 -0.999999 0.000978 
81.393669 -5.303301 31.665457 0.000978 -0.999999 0.000978 
54.552994 -5.303301 34.651897 0.000978 -0.999999 0.000978 
40.497776 -5.303301 36.339661 0.000978 -0.999999 0.000978 
63.483707 -5.303301 36.542240 0.000978 -0.999999 0.000978 
24.179787 -5.303301 36.838509 0.000978 -0.999999 0.000978 
35.239441 -5.303301 36.916019 0.000978 -0.999999 0.000978 
34.471371 -5.303301 35.665691 0.000978 -0.999999 0.000978 
34.943745 -5.303301 35.987896 0.000978 -0.999999 0.000978 
59.547539 -5.303301 33.855152 0.000978 -0.999999 0.000978 
45.614780 -5.303301 36.953915 0.000978 -0.999999 0.000978 
23.949791 -5.303301 37.273506 0.000978 -0.999999 0.000978 
45.536781 -5.303301 35.279480 0.000978 -0.999999 0.000978 
60.543789 -5.303301 35.174362 0.000978 -0.999999 0.000978 
59.100544 -5.303301 35.333073 0.000978 -0.999999 0.000978 
45.504822 -5.303301 35.321438 0.000978 -0.999999 0.000978 
59.187313 -5.303301 35.644932 0.000978 -0.999999 0.000978 
67.399010 -5.303301 36.197662 0.000978 -0.999999 0.000978 
40.458603 -5.303301 36.357903 0.000978 -0.999999 0.000978 
98.509171 2.803301 32.164085 0.000978 -0.999999 0.000978 
81.609169 2.803301 32.466835 0.000978 -0.999999 0.000978 
98.540474 2.803301 30.858488 0.000978 -0.999999 0.000978 
97.252121 2.803301 30.018372 0.000978 -0.999999 0.000978 
90.464172 2.803301 30.019865 0.000978 -0.999999 0.000978 
81.656609 2.803301 29.356352 0.000978 -0.999999 0.000978 
91.407806 2.803301 30.639538 0.000978 -0.999999 0.000978 
82.135765 2.803301 30.833885 0.000978 -0.999999 0.000978 
94.148842 2.803301 29.590136 0.000978 -0.999999 0.000978 
78.722672 2.803301 32.398342 0.000978 -0.999999 0.000978 
98.477692 2.803301 29.765730 0.000978 -0.999999 0.000978 
83.093315 2.803301 27.561552 0.000978 -0.999999 0.000978 
70.972580 2.803301 29.091316 0.000978 -0.999999 0.000978 
72.306816 2.803301 28.898222 0.000978 -0.999999 0.000978 
72.748344 2.803301 29.495422 0.000978 -0.999999 0.000978 
70.156715 2.803301 30.167767 0.000978 -0.999999 0.000978 
71.741180 2.803301 30.230173 0.000978 -0.999999 0.000978 
69.358566 2.803301 28.794064 0.000978 -0.999999 0.000978 
86.561920 -2.803301 31.158224 0.000978 0.999999 0.000978 
95.562386 -2.803301 30.284496 0.000978 0.999999 0.000978 
83.427376 -2.803301 30.052807 0.000978 0.999999 0.000978 
82.949356 -2.803301 31.596972 0.000978 0.999999 0.000978 
86.165253 -2.803301 31.261738 0.000978 0.999999 0.000978 
79.695740 -2.803301 31.524000 0.000978 0.999999 0.000978 
84.792252 -2.803301 29.969738 0.000978 0.999999 0.000978 
100.118340 -2.803301 30.307045 0.000978 0.999999 0.000978 
89.396950 -2.803301 28.586695 0.000978 0.999999 0.000978 
98.251328 -2.803301 31.984493 0.000978 0.999999 0.000978 
97.244751 -2.803301 32.451843 0.000978 0.999999 0.000978 
102.334282 -2.803301 32.266964 0.000978 0.999999 0.000978 
96.950394 -2.803301 28.286533 0.000978 0.999999 0.000978 
97.878143 -2.803301 27.729849 0.000978 0.999999 0.000978 
102.318459 -2.979493 29.825338 0.987835 0.001119 -0.155503 
101.563553 -4.928007 28.301348 0.705724 0.001381 -0.708486 
100.529671 -4.640847 27.673876 0.332624 0.001246 -0.943059 
102.374367 -3.617422 31.513178 0.999999 0.000978 0.000978 
101.609383 5.063293 28.358206 0.723512 0.001383 -0.690311 
101.766083 4.809252 28.562418 0.785794 0.001371 -0.618487 
102.021255 5.099070 28.911976 0.873026 0.001329 -0.487672 
102.374367 4.936227 30.389446 0.999999 0.000978 0.000978 
102.374367 2.879502 30.736757 0.999999 0.000978 0.000978 
76.391991 -2.495552 32.870388 0.987489 -0.157685 0.001118 
76.405624 -2.891610 34.431847 0.970628 0.240583 0.001185 
78.067467 -3.364269 30.531670 -0.697373 0.716707 0.001381 
78.153923 -3.268285 34.552597 -0.784741 0.619822 0.001374 
77.654739 -1.694262 36.606125 -0.282560 -0.959249 0.001213 
77.198471 3.632784 32.351574 0.175987 -0.984392 0.001135 
77.774292 3.559453 36.988815 -0.403862 -0.914819 0.001290 
76.786781 1.851762 36.775829 0.592312 0.805708 0.001368 
78.362434 2.552367 36.795437 -0.994811 0.101730 0.001071 
75.266190 -2.803301 32.035755 0.000978 0.999999 0.000978 
68.355331 -2.803301 32.170467 0.000978 0.999999 0.000978 
74.809006 -2.803301 30.292437 0.000978 0.999999 0.000978 
68.439873 -2.803301 29.435940 0.000978 0.999999 0.000978 
68.626778 -2.803301 28.253071 0.000978 0.999999 0.000978 
82.654045 -0.765082 34.960281 -0.999371 0.001013 0.035439 
82.441307 -1.109279 34.341721 -0.810210 0.001366 0.586138 
81.104095 1.739970 33.960022 0.381263 -0.001275 0.924466 
80.709534 -1.023750 34.238773 0.734219 -0.001383 0.678911 
80.505798 4.979764 34.546738 0.915238 -0.001287 0.402911 
80.479256 -4.273037 34.616661 0.939536 -0.001254 0.342448 
80.426758 0.130112 34.810520 0.985368 -0.001129 0.170436 
80.414055 -3.863508 34.937222 0.998393 -0.001030 0.056668 
80.439850 6.656642 35.252331 0.974073 -0.001172 -0.226229 
80.497589 -0.147084 35.438313 0.920595 -0.001280 -0.390517 
81.172707 -4.837505 36.060841 0.321435 -0.001241 -0.946931 
81.976997 -2.188365 36.031979 -0.394539 0.001285 -0.918878 
82.258133 -0.938092 35.853352 -0.648407 0.001377 -0.761293 
74.645927 -4.093449 34.879440 -0.994066 0.001077 0.108776 
74.574203 0.201560 34.575912 -0.925729 0.001273 0.378186 
74.281471 -0.826952 34.165787 -0.667359 0.001382 0.744734 
72.495155 -0.523580 34.566402 0.922811 -0.001280 0.385251 
72.478104 2.432548 34.621262 0.940919 -0.001250 0.338631 
72.420822 4.362076 34.872128 0.993508 -0.001083 0.113760 
72.523155 1.820820 35.485706 0.900850 -0.001304 -0.434129 
72.749878 -1.856706 35.805912 0.695951 -0.001384 -0.718088 
73.333405 -4.427756 36.105434 0.178186 -0.001135 -0.983996 
73.909332 -1.165523 36.055862 -0.335625 0.001248 -0.941995 
67.374367 -1.296824 28.928259 0.999999 0.000978 0.000978 
67.374367 -2.085683 30.992546 0.999999 0.000978 0.000978 
67.374367 0.910395 28.199165 0.999999 0.000978 0.000978 
67.374367 -0.515182 29.311710 0.999999 0.000978 0.000978 
105.158943 -5.311826 36.539799 0.333408 -0.942782 0.001249 
104.930687 -8.029004 36.310490 0.484515 0.874782 0.001327 
118.815269 -4.380507 34.289055 -0.522373 -0.852716 0.001343 
118.505203 -4.239832 33.043365 -0.317711 -0.948187 0.001236 
118.576324 -4.270663 35.015755 -0.366791 -0.930303 0.001269 
117.397484 -4.308590 36.340015 0.425734 -0.904847 0.001302 
116.664101 -5.070643 37.236599 0.918878 -0.394539 0.001285 
118.033119 -7.155909 36.632668 -0.000978 0.999999 0.000978 
119.514839 -5.792016 35.852139 -0.995910 0.090344 0.001063 
119.561096 8.134773 36.675098 -0.314746 -0.949175 0.001234 
119.478882 8.157205 33.249958 -0.260274 -0.965534 0.001199 
119.362907 8.185293 35.902760 -0.181191 -0.983447 0.001140 
117.882927 7.591141 35.734440 0.811146 -0.584843 0.001363 
118.621750 5.301916 37.227165 0.315485 0.948930 0.001237 
108.210495 5.714674 36.812267 -0.999295 -0.037537 0.001015 
106.088280 7.006770 34.748009 0.422600 -0.906315 0.001300 
105.689087 6.740280 34.550510 0.688930 -0.724826 0.001381 
105.575089 4.701236 34.842777 0.767655 0.640861 0.001378 
106.328537 4.210642 34.877026 0.259673 0.965696 0.001197 
109.424355 3.374300 33.073196 0.657235 -0.753685 0.001378 
109.881462 3.717822 36.755043 0.556887 -0.830587 0.001355 
110.933212 4.245637 35.850258 0.321435 -0.946931 0.001241 
111.270416 4.340014 34.432941 0.246171 -0.969226 0.001189 
111.591805 4.420790 34.373917 0.173397 -0.984851 0.001133 
112.509819 4.465471 32.606430 -0.031203 -0.999513 0.001007 
113.277649 4.373661 32.614853 -0.202338 -0.979315 0.001156 
116.653671 1.348072 36.448795 -0.953712 -0.300720 0.001227 
116.772491 -0.891341 35.469143 -0.979863 0.199666 0.001154 
116.297310 -2.151939 34.204601 -0.876523 0.481358 0.001326 
115.865936 -2.810178 32.825539 -0.778585 0.627537 0.001373 
112.484306 -4.473954 34.314518 -0.023017 0.999735 0.001001 
111.623093 -4.418457 33.512802 0.168243 0.985745 0.001129 
108.844032 -2.759699 34.945343 0.788169 0.615457 0.001371 
107.952042 -0.649701 36.467815 0.989363 0.145462 0.001110 
107.953644 0.608911 37.383205 0.990769 -0.135556 0.001102 
108.434998 2.102209 32.918079 0.882755 -0.469832 0.001323 
99.280701 10.591658 34.463223 -0.226747 0.973953 0.001175 
102.810959 11.446558 36.939663 -0.240031 0.970765 0.001182 
103.322701 11.570483 33.481335 -0.240583 0.970628 0.001185 
104.806908 11.929905 36.597778 -0.246171 0.969226 0.001189 
107.287971 12.939099 34.101536 -0.366791 0.930303 0.001269 
107.456947 13.013204 37.365856 -0.353743 0.935342 0.001259 
110.021622 13.691990 33.957138 -0.170436 0.985368 0.001129 
111.013222 13.857404 35.708954 -0.097281 0.995256 0.001069 
112.268616 13.948927 34.563629 -0.008867 0.999960 0.000985 
113.451920 13.850821 36.488289 0.076696 0.997054 0.001051 
115.368874 13.660398 33.297951 0.213106 0.977028 0.001165 
116.877396 13.142460 37.220570 0.324419 0.945912 0.001243 
120.361801 11.376195 34.268017 0.573736 0.819039 0.001363 
121.046715 10.928691 35.046055 0.621510 0.783405 0.001372 
122.677719 9.319717 33.567986 0.740750 0.671779 0.001379 
122.990562 8.979861 36.866455 0.762653 0.646807 0.001379 
123.827225 8.026174 35.629673 0.819039 0.573736 0.001363 
125.340454 5.229858 37.478794 0.927860 0.372926 0.001273 
125.590492 4.402648 36.383755 0.948930 0.315485 0.001237 
125.978134 2.871827 35.566807 0.978758 0.205018 0.001158 
126.266861 0.235653 35.075844 0.999856 0.016913 0.000995 
126.266861 -0.371775 35.007103 0.999633 -0.027071 0.001003 
125.877396 -3.269662 34.134533 0.972119 -0.234487 0.001178 
125.433678 -5.021932 33.446121 0.933865 -0.357624 0.001264 
124.442909 -6.888446 34.311970 0.868817 -0.495132 0.001335 
123.769279 -8.133245 34.238384 0.813364 -0.581753 0.001362 
124.478432 -6.822799 35.972591 0.871255 -0.490829 0.001330 
122.996834 -8.973051 33.568100 0.763803 -0.645448 0.001376 
121.983368 -10.074019 33.733700 0.688930 -0.724826 0.001381 
119.996712 -11.614736 32.591599 0.548745 -0.835989 0.001355 
119.434937 -11.981788 35.387848 0.507781 -0.861485 0.001340 
117.832672 -12.814472 35.709732 0.393609 -0.919277 0.001282 
115.579552 -13.588064 34.118561 0.228974 -0.973432 0.001174 
112.989876 -13.889129 32.532200 0.043791 -0.999040 0.001018 
113.850616 -13.817766 37.187302 0.106419 -0.994321 0.001075 
110.437057 -13.761291 33.818607 -0.140185 -0.990125 0.001104 
110.259186 -13.731620 35.377319 -0.152643 -0.988281 0.001114 
107.265297 -12.929153 35.510586 -0.368984 -0.929435 0.001268 
108.134628 -13.310414 32.575375 -0.303660 -0.952780 0.001229 
105.462074 -12.138318 33.384560 -0.495132 -0.868817 0.001335 
101.778481 -11.196530 37.346077 -0.235025 -0.971989 0.001181 
101.091515 -11.030171 36.501717 -0.234487 -0.972119 0.001178 
102.301323 -11.323143 34.362675 -0.237800 -0.971313 0.001183 
99.283928 -10.592438 34.621742 -0.226747 -0.973953 0.001175 
83.078331 -7.328274 36.131660 -0.165311 -0.986241 0.001125 
77.130562 -6.454803 33.507469 -0.138020 -0.990429 0.001104 
76.777901 -6.435988 33.088974 -0.137718 -0.990471 0.001102 
79.495567 -6.766089 35.305256 -0.150135 -0.988665 0.001112 
72.253189 -5.778060 34.743671 -0.118289 -0.992979 0.001085 
68.048416 -5.320342 33.350628 -0.097281 -0.995256 0.001069 
98.172661 -10.329534 36.991478 -0.223492 -0.974705 0.001170 
92.054077 -9.112370 36.142647 -0.199666 -0.979863 0.001154 
87.682739 -8.242785 37.352089 -0.183394 -0.983039 0.001139 
97.868240 -10.268975 35.806435 -0.221267 -0.975213 0.001171 
94.200333 -9.539322 33.162125 -0.207706 -0.978191 0.001160 
89.314133 -8.567317 34.311749 -0.189060 -0.981965 0.001146 
83.299156 -7.370767 37.404461 -0.165678 -0.986179 0.001127 
95.767990 -9.851174 32.906818 -0.213106 -0.977028 0.001165 
86.971680 -8.101336 34.476681 -0.180786 -0.983522 0.001137 
73.253075 -5.995070 37.237450 -0.120950 -0.992658 0.001090 
71.336311 -5.738502 37.228989 -0.113516 -0.993536 0.001081 
76.738907 6.394967 33.659901 -0.137718 0.990471 0.001102 
78.705658 6.668115 36.168846 -0.147635 0.989041 0.001110 
75.011162 6.127609 34.411919 -0.130369 0.991465 0.001096 
73.655144 6.041327 37.155266 -0.123363 0.992361 0.001092 
72.550140 5.814809 35.964912 -0.118545 0.992948 0.001088 
68.572266 5.377346 35.998234 -0.099610 0.995026 0.001071 
90.914604 8.885697 35.025723 -0.194346 0.980932 0.001150 
87.543869 8.215161 33.051083 -0.183394 0.983039 0.001139 
96.788361 10.054156 34.577087 -0.218041 0.975939 0.001166 
93.373497 9.374842 33.252575 -0.204554 0.978855 0.001156 
96.481354 9.993084 35.489651 -0.215818 0.976433 0.001167 
97.441170 10.184017 37.406982 -0.220763 0.975327 0.001168 
87.579796 8.222307 36.804890 -0.183394 0.983039 0.001139 
95.811974 9.859925 36.689968 -0.213106 0.977028 0.001165 
87.777451 8.261628 36.779419 -0.183394 0.983039 0.001139 
85.292114 7.767222 34.021019 -0.173397 0.984851 0.001133 
82.191292 7.210333 32.514614 -0.160574 0.987023 0.001123 
76.393654 0.146497 34.972652 0.988993 -0.147960 0.001112 
76.707726 -0.738156 36.271091 0.670261 0.742124 0.001382 
77.254364 -0.984202 33.828682 0.120950 0.992658 0.001090 
77.223923 -0.980194 35.521362 0.152643 0.988281 0.001114 
76.355698 -0.674817 32.500000 0.000978 0.000978 -0.999999 
71.854141 -1.111900 32.500000 0.000978 0.000978 -0.999999 
71.348457 -1.251143 32.500000 0.000978 0.000978 -0.999999 
72.903885 -1.009702 32.500000 0.000978 0.000978 -0.999999 
76.328232 1.238536 32.500000 0.000978 0.000978 -0.999999 
76.246956 2.750658 32.500000 0.000978 0.000978 -0.999999 
70.767120 2.624887 32.500000 0.000978 0.000978 -0.999999 
80.561363 2.275825 32.500000 0.000978 0.000978 -0.999999 
86.875900 2.422295 32.500000 0.000978 0.000978 -0.999999 
95.890564 2.234399 32.500000 0.000978 0.000978 -0.999999 
97.359756 2.463359 32.500000 0.000978 0.000978 -0.999999 
89.786217 0.798940 32.500000 0.000978 0.000978 -0.999999 
99.102844 -0.102201 32.500000 0.000978 0.000978 -0.999999 
92.158829 -1.241218 32.500000 0.000978 0.000978 -0.999999 
96.254555 0.048080 32.500000 0.000978 0.000978 -0.999999 
98.317818 0.426030 32.500000 0.000978 0.000978 -0.999999 
82.975677 -0.101067 32.500000 0.000978 0.000978 -0.999999 
86.802078 -0.856636 32.500000 0.000978 0.000978 -0.999999 
101.381691 1.533369 32.500000 0.000978 0.000978 -0.999999 
104.488953 -0.801401 32.500000 0.000978 0.000978 -0.999999 
103.929321 -1.802286 32.500000 0.000978 0.000978 -0.999999 
71.960297 5.622124 32.500000 0.000978 0.000978 -0.999999 
75.963501 6.299589 32.500000 0.000978 0.000978 -0.999999 
82.845512 6.853083 32.500000 0.000978 0.000978 -0.999999 
76.257614 5.715276 32.500000 0.000978 0.000978 -0.999999 
86.276581 7.544624 32.500000 0.000978 0.000978 -0.999999 
92.938728 8.283127 32.500000 0.000978 0.000978 -0.999999 
101.112274 6.716662 32.500000 0.000978 0.000978 -0.999999 
98.323593 6.130735 32.500000 0.000978 0.000978 -0.999999 
94.746338 8.671158 32.500000 0.000978 0.000978 -0.999999 
100.056084 5.933879 32.500000 0.000978 0.000978 -0.999999 
102.158279 7.043259 32.500000 0.000978 0.000978 -0.999999 
102.416985 5.918612 32.500000 0.000978 0.000978 -0.999999 
107.633316 13.012411 32.500000 0.000978 0.000978 -0.999999 
110.828201 13.708214 32.500000 0.000978 0.000978 -0.999999 
107.728539 9.111662 32.500000 0.000978 0.000978 -0.999999 
113.733238 9.615549 32.500000 0.000978 0.000978 -0.999999 
112.496895 8.218739 32.500000 0.000978 0.000978 -0.999999 
109.196106 7.531344 32.500000 0.000978 0.000978 -0.999999 
110.887199 6.895507 32.500000 0.000978 0.000978 -0.999999 
109.185890 5.516479 32.500000 0.000978 0.000978 -0.999999 
108.199028 4.938585 32.500000 0.000978 0.000978 -0.999999 
108.546562 3.408675 32.500000 0.000978 0.000978 -0.999999 
107.657936 0.675747 32.500000 0.000978 0.000978 -0.999999 
117.674156 11.488861 32.500000 0.000978 0.000978 -0.999999 
120.701042 10.139160 32.500000 0.000978 0.000978 -0.999999 
120.981941 9.610080 32.500000 0.000978 0.000978 -0.999999 
125.186401 2.812325 32.500000 0.000978 0.000978 -0.999999 
125.328293 0.755712 32.500000 0.000978 0.000978 -0.999999 
122.174423 -1.058699 32.500000 0.000978 0.000978 -0.999999 
123.425369 1.382312 32.500000 0.000978 0.000978 -0.999999 
119.090805 2.162922 32.500000 0.000978 0.000978 -0.999999 
122.067261 3.631735 32.500000 0.000978 0.000978 -0.999999 
118.238838 2.091758 32.500000 0.000978 0.000978 -0.999999 
119.235664 4.750832 32.500000 0.000978 0.000978 -0.999999 
118.401695 4.403133 32.500000 0.000978 0.000978 -0.999999 
117.486008 4.156880 32.500000 0.000978 0.000978 -0.999999 
114.947365 4.400769 32.500000 0.000978 0.000978 -0.999999 
115.181633 5.894655 32.500000 0.000978 0.000978 -0.999999 
115.483482 7.075577 32.500000 0.000978 0.000978 -0.999999 
122.115585 -4.623428 32.500000 0.000978 0.000978 -0.999999 
124.385719 -6.385960 32.500000 0.000978 0.000978 -0.999999 
119.755791 -7.130782 32.500000 0.000978 0.000978 -0.999999 
118.843750 -10.624391 32.500000 0.000978 0.000978 -0.999999 
117.635002 -9.726002 32.500000 0.000978 0.000978 -0.999999 
114.436554 -13.418154 32.500000 0.000978 0.000978 -0.999999 
113.065529 -9.122071 32.500000 0.000978 0.000978 -0.999999 
116.385880 -7.516737 32.500000 0.000978 0.000978 -0.999999 
116.107552 -7.784811 32.500000 0.000978 0.000978 -0.999999 
107.650970 -9.530795 32.500000 0.000978 0.000978 -0.999999 
109.883797 -9.720109 32.500000 0.000978 0.000978 -0.999999 
110.979561 -9.607591 32.500000 0.000978 0.000978 -0.999999 
111.249870 -8.552319 32.500000 0.000978 0.000978 -0.999999 
112.556252 -7.456699 32.500000 0.000978 0.000978 -0.999999 
106.484818 -9.559488 32.500000 0.000978 0.000978 -0.999999 
100.100502 -9.874997 32.500000 0.000978 0.000978 -0.999999 
102.606621 -11.138524 32.500000 0.000978 0.000978 -0.999999 
98.351952 -7.203035 32.500000 0.000978 0.000978 -0.999999 
96.204872 -9.350849 32.500000 0.000978 0.000978 -0.999999 
98.056686 -9.658504 32.500000 0.000978 0.000978 -0.999999 
98.687378 -9.059235 32.500000 0.000978 0.000978 -0.999999 
92.785118 -6.942457 32.500000 0.000978 0.000978 -0.999999 
98.943329 -9.635854 32.500000 0.000978 0.000978 -0.999999 
71.710144 -5.662636 32.500000 0.000978 0.000978 -0.999999 
90.174423 -6.259323 32.500000 0.000978 0.000978 -0.999999 
93.035721 -6.261856 32.500000 0.000978 0.000978 -0.999999 
85.647987 -6.135983 32.500000 0.000978 0.000978 -0.999999 
103.528191 -4.969503 32.500000 0.000978 0.000978 -0.999999 
103.311745 -5.568703 32.500000 0.000978 0.000978 -0.999999 
81.237961 -2.719820 32.500000 0.000978 0.000978 -0.999999 
86.805450 -1.378846 32.500000 0.000978 0.000978 -0.999999 
78.453911 -1.382545 32.500000 0.000978 0.000978 -0.999999 
97.213989 -2.636542 32.500000 0.000978 0.000978 -0.999999 
104.611137 -7.840840 32.500000 0.000978 0.000978 -0.999999 
107.390099 -4.994979 32.500000 0.000978 0.000978 -0.999999 
106.908447 -4.260266 32.500000 0.000978 0.000978 -0.999999 
105.232552 -3.146105 32.500000 0.000978 0.000978 -0.999999 
123.836342 -2.249387 32.500000 0.000978 0.000978 -0.999999 
121.541748 -1.844926 32.500000 0.000978 0.000978 -0.999999 
115.338913 -3.974295 32.500000 0.000978 0.000978 -0.999999 
104.847221 10.782948 32.500000 0.000978 0.000978 -0.999999 
106.078423 -1.904107 32.500000 0.000978 0.000978 0.999999 
105.072441 -4.856428 32.500000 0.000978 0.000978 0.999999 
104.389412 0.251691 32.500000 0.000978 0.000978 0.999999 
104.879242 0.066694 32.500000 0.000978 0.000978 0.999999 
81.769623 -0.278373 32.500000 0.000978 0.000978 0.999999 
82.209717 -0.058910 32.500000 0.000978 0.000978 0.999999 
88.277634 -0.876019 32.500000 0.000978 0.000978 0.999999 
95.356064 -0.155946 32.500000 0.000978 0.000978 0.999999 
90.144463 0.863263 32.500000 0.000978 0.000978 0.999999 
93.773712 -1.112367 32.500000 0.000978 0.000978 0.999999 
99.277679 1.976319 32.500000 0.000978 0.000978 0.999999 
86.735260 -0.514510 32.500000 0.000978 0.000978 0.999999 
92.705193 2.019537 32.500000 0.000978 0.000978 0.999999 
88.744766 2.080845 32.500000 0.000978 0.000978 0.999999 
87.751289 2.562289 32.500000 0.000978 0.000978 0.999999 
106.799294 2.220174 32.500000 0.000978 0.000978 0.999999 
110.758621 12.517846 32.500000 0.000978 0.000978 0.999999 
111.573517 7.349339 32.500000 0.000978 0.000978 0.999999 
110.726196 10.564135 32.500000 0.000978 0.000978 0.999999 
111.473228 9.057216 32.500000 0.000978 0.000978 0.999999 
109.507332 12.504759 32.500000 0.000978 0.000978 0.999999 
114.655052 5.467020 32.500000 0.000978 0.000978 0.999999 
116.018669 6.851870 32.500000 0.000978 0.000978 0.999999 
112.958641 5.102631 32.500000 0.000978 0.000978 0.999999 
114.323135 6.999477 32.500000 0.000978 0.000978 0.999999 
115.624763 14.631283 32.500000 0.000978 0.000978 0.999999 
117.178413 15.705746 32.500000 0.000978 0.000978 0.999999 
116.877861 6.130020 32.500000 0.000978 0.000978 0.999999 
118.513786 5.287800 32.500000 0.000978 0.000978 0.999999 
117.259972 1.332243 32.500000 0.000978 0.000978 0.999999 
119.999596 3.512217 32.500000 0.000978 0.000978 0.999999 
119.264153 1.034052 32.500000 0.000978 0.000978 0.999999 
124.526764 3.611647 32.500000 0.000978 0.000978 0.999999 
126.585403 4.116432 32.500000 0.000978 0.000978 0.999999 
125.332893 5.172747 32.500000 0.000978 0.000978 0.999999 
122.718719 6.780765 32.500000 0.000978 0.000978 0.999999 
125.917778 8.654589 32.500000 0.000978 0.000978 0.999999 
123.908646 9.890997 32.500000 0.000978 0.000978 0.999999 
122.149223 12.510255 32.500000 0.000978 0.000978 0.999999 
118.916435 14.909328 32.500000 0.000978 0.000978 0.999999 
116.926170 -0.263098 32.500000 0.000978 0.000978 0.999999 
125.761024 -0.943306 32.500000 0.000978 0.000978 0.999999 
125.685173 -0.966310 32.500000 0.000978 0.000978 0.999999 
120.388901 -1.293133 32.500000 0.000978 0.000978 0.999999 
124.552917 -1.828908 32.500000 0.000978 0.000978 0.999999 
118.712921 -4.248230 32.500000 0.000978 0.000978 0.999999 
116.362465 -5.206796 32.500000 0.000978 0.000978 0.999999 
116.260864 -5.953722 32.500000 0.000978 0.000978 0.999999 
112.049957 -13.284769 32.500000 0.000978 0.000978 0.999999 
110.966698 -6.619033 32.500000 0.000978 0.000978 0.999999 
108.486618 -8.595428 32.500000 0.000978 0.000978 0.999999 
109.758171 -13.374416 32.500000 0.000978 0.000978 0.999999 
109.246201 -12.034038 32.500000 0.000978 0.000978 0.999999 
107.513832 -13.198649 32.500000 0.000978 0.000978 0.999999 
108.273689 -13.425447 32.500000 0.000978 0.000978 0.999999 
105.782402 -11.135935 32.500000 0.000978 0.000978 0.999999 
104.635872 -13.022589 32.500000 0.000978 0.000978 0.999999 
101.830902 12.314180 32.500000 0.000978 0.000978 0.999999 
102.920280 6.478652 32.500000 0.000978 0.000978 0.999999 
99.125076 9.584234 32.500000 0.000978 0.000978 0.999999 
105.976372 7.642359 32.500000 0.000978 0.000978 0.999999 
105.624077 9.796467 32.500000 0.000978 0.000978 0.999999 
105.580330 10.534631 32.500000 0.000978 0.000978 0.999999 
108.422775 11.751729 32.500000 0.000978 0.000978 0.999999 
108.310135 9.984660 32.500000 0.000978 0.000978 0.999999 
120.174507 -5.751451 32.500000 0.000978 0.000978 0.999999 
126.858231 -4.798743 32.500000 0.000978 0.000978 0.999999 
126.549126 -6.535853 32.500000 0.000978 0.000978 0.999999 
124.319588 -4.704641 32.500000 0.000978 0.000978 0.999999 
126.409012 -2.400303 32.500000 0.000978 0.000978 0.999999 
128.271851 -3.070444 32.500000 0.000978 0.000978 0.999999 
123.889626 -7.697171 32.500000 0.000978 0.000978 0.999999 
120.169960 -6.619316 32.500000 0.000978 0.000978 0.999999 
121.064064 -7.399675 32.500000 0.000978 0.000978 0.999999 
119.261269 -7.144420 32.500000 0.000978 0.000978 0.999999 
121.628510 -10.906817 32.500000 0.000978 0.000978 0.999999 
119.547798 -14.550311 32.500000 0.000978 0.000978 0.999999 
118.121567 -9.682843 32.500000 0.000978 0.000978 0.999999 
117.295441 -9.056797 32.500000 0.000978 0.000978 0.999999 
114.908112 -16.061995 32.500000 0.000978 0.000978 0.999999 
114.889938 -15.036011 32.500000 0.000978 0.000978 0.999999 
114.718140 -7.840137 32.500000 0.000978 0.000978 0.999999 
114.470825 -5.996572 32.500000 0.000978 0.000978 0.999999 
113.286774 -13.152306 32.500000 0.000978 0.000978 0.999999 
106.230247 -5.065727 32.500000 0.000978 0.000978 0.999999 
104.710861 -9.858277 32.500000 0.000978 0.000978 0.999999 
102.502991 -11.048784 32.500000 0.000978 0.000978 0.999999 
100.629082 -9.724679 32.500000 0.000978 0.000978 0.999999 
69.480133 2.503637 32.500000 0.000978 0.000978 0.999999 
69.920090 -0.376152 32.500000 0.000978 0.000978 0.999999 
69.610374 -0.705559 32.500000 0.000978 0.000978 0.999999 
72.324615 -1.108607 32.500000 0.000978 0.000978 0.999999 
69.682381 -2.671248 32.500000 0.000978 0.000978 0.999999 
79.694260 -1.813994 32.500000 0.000978 0.000978 0.999999 
92.894707 -2.600729 32.500000 0.000978 0.000978 0.999999 
78.635544 -1.042100 32.500000 0.000978 0.000978 0.999999 
100.322289 -2.686769 32.500000 0.000978 0.000978 0.999999 
90.381409 -2.728762 32.500000 0.000978 0.000978 0.999999 
101.681496 -5.434703 32.500000 0.000978 0.000978 0.999999 
101.218239 -6.439767 32.500000 0.000978 0.000978 0.999999 
108.042397 -3.859453 30.000000 0.000978 0.000978 -0.999999 
110.458252 -4.484549 30.000000 0.000978 0.000978 -0.999999 
112.867249 -9.781834 30.000000 0.000978 0.000978 -0.999999 
116.348389 -6.769461 30.000000 0.000978 0.000978 -0.999999 
114.234283 -10.918423 30.000000 0.000978 0.000978 -0.999999 
114.400253 -9.516389 30.000000 0.000978 0.000978 -0.999999 
111.595268 -9.510886 30.000000 0.000978 0.000978 -0.999999 
111.695114 -9.559338 30.000000 0.000978 0.000978 -0.999999 
111.967857 -14.650187 30.000000 0.000978 0.000978 -0.999999 
109.419022 -12.811138 30.000000 0.000978 0.000978 -0.999999 
109.027634 -13.352314 30.000000 0.000978 0.000978 -0.999999 
108.368645 -13.305803 30.000000 0.000978 0.000978 -0.999999 
105.213409 -13.926518 30.000000 0.000978 0.000978 -0.999999 
105.324745 -10.049119 30.000000 0.000978 0.000978 -0.999999 
103.456146 -11.645551 30.000000 0.000978 0.000978 -0.999999 
102.747795 -9.413802 30.000000 0.000978 0.000978 -0.999999 
102.241585 -6.379773 30.000000 0.000978 0.000978 -0.999999 
104.005600 -6.447755 30.000000 0.000978 0.000978 -0.999999 
104.332748 -5.737024 30.000000 0.000978 0.000978 -0.999999 
105.422714 -2.887576 30.000000 0.000978 0.000978 -0.999999 
107.355286 -2.061558 30.000000 0.000978 0.000978 -0.999999 
118.717064 0.754251 30.000000 0.000978 0.000978 -0.999999 
125.604996 0.872080 30.000000 0.000978 0.000978 -0.999999 
127.058540 0.743349 30.000000 0.000978 0.000978 -0.999999 
119.633331 -3.675096 30.000000 0.000978 0.000978 -0.999999 
119.957054 -0.880886 30.000000 0.000978 0.000978 -0.999999 
120.551224 -2.323657 30.000000 0.000978 0.000978 -0.999999 
120.244705 -4.666242 30.000000 0.000978 0.000978 -0.999999 
127.171082 -5.793893 30.000000 0.000978 0.000978 -0.999999 
127.391579 -6.493659 30.000000 0.000978 0.000978 -0.999999 
125.472107 -8.203530 30.000000 0.000978 0.000978 -0.999999 
124.377487 -11.138235 30.000000 0.000978 0.000978 -0.999999 
121.986900 -10.070683 30.000000 0.000978 0.000978 -0.999999 
121.072990 -11.426514 30.000000 0.000978 0.000978 -0.999999 
119.600342 -9.454700 30.000000 0.000978 0.000978 -0.999999 
119.340034 -12.275646 30.000000 0.000978 0.000978 -0.999999 
117.851593 -13.451455 30.000000 0.000978 0.000978 -0.999999 
116.567833 -10.331512 30.000000 0.000978 0.000978 -0.999999 
116.572762 4.663439 30.000000 0.000978 0.000978 -0.999999 
115.368340 7.336760 30.000000 0.000978 0.000978 -0.999999 
113.115639 7.072130 30.000000 0.000978 0.000978 -0.999999 
114.944672 11.863188 30.000000 0.000978 0.000978 -0.999999 
117.049744 9.309879 30.000000 0.000978 0.000978 -0.999999 
117.132889 15.590495 30.000000 0.000978 0.000978 -0.999999 
119.545204 12.021847 30.000000 0.000978 0.000978 -0.999999 
121.376236 12.488955 30.000000 0.000978 0.000978 -0.999999 
123.698616 9.386828 30.000000 0.000978 0.000978 -0.999999 
122.162354 7.295744 30.000000 0.000978 0.000978 -0.999999 
122.271309 5.796849 30.000000 0.000978 0.000978 -0.999999 
123.956329 4.878232 30.000000 0.000978 0.000978 -0.999999 
127.663139 3.516401 30.000000 0.000978 0.000978 -0.999999 
117.276405 0.781207 30.000000 0.000978 0.000978 -0.999999 
122.887939 3.142172 30.000000 0.000978 0.000978 -0.999999 
121.401688 4.450085 30.000000 0.000978 0.000978 -0.999999 
120.205841 2.770491 30.000000 0.000978 0.000978 -0.999999 
111.194504 12.005346 30.000000 0.000978 0.000978 -0.999999 
111.742638 14.064252 30.000000 0.000978 0.000978 -0.999999 
110.398506 6.888470 30.000000 0.000978 0.000978 -0.999999 
110.358002 7.291318 30.000000 0.000978 0.000978 -0.999999 
110.359627 11.816131 30.000000 0.000978 0.000978 -0.999999 
110.260529 14.985491 30.000000 0.000978 0.000978 -0.999999 
108.387482 11.603785 30.000000 0.000978 0.000978 -0.999999 
107.207596 10.786487 30.000000 0.000978 0.000978 -0.999999 
107.022469 10.152610 30.000000 0.000978 0.000978 -0.999999 
106.113663 2.028036 30.000000 0.000978 0.000978 -0.999999 
103.517876 6.019475 30.000000 0.000978 0.000978 -0.999999 
102.002426 8.836975 30.000000 0.000978 0.000978 -0.999999 
102.331001 10.249115 30.000000 0.000978 0.000978 -0.999999 
102.074043 9.784481 30.000000 0.000978 0.000978 -0.999999 
102.737221 0.066983 30.000000 0.000978 0.000978 -0.999999 
104.484673 1.507797 30.000000 0.000978 0.000978 -0.999999 
106.645256 13.069986 30.000000 0.000978 0.000978 -0.999999 
104.738815 13.349381 30.000000 0.000978 0.000978 -0.999999 
105.359108 9.114074 30.000000 0.000978 0.000978 -0.999999 
82.313782 -1.923000 30.000000 0.000978 0.000978 -0.999999 
83.467926 -1.658510 30.000000 0.000978 0.000978 -0.999999 
83.132645 -1.710580 30.000000 0.000978 0.000978 -0.999999 
80.703461 -0.336507 30.000000 0.000978 0.000978 -0.999999 
84.321007 -0.003384 30.000000 0.000978 0.000978 -0.999999 
94.529663 1.405023 30.000000 0.000978 0.000978 -0.999999 
90.632767 1.114975 30.000000 0.000978 0.000978 -0.999999 
100.778862 -0.843832 30.000000 0.000978 0.000978 -0.999999 
99.792702 -0.758218 30.000000 0.000978 0.000978 -0.999999 
100.475784 -0.167393 30.000000 0.000978 0.000978 -0.999999 
86.375099 -0.345622 30.000000 0.000978 0.000978 -0.999999 
96.407707 1.433625 30.000000 0.000978 0.000978 -0.999999 
92.913620 2.686496 30.000000 0.000978 0.000978 -0.999999 
80.152489 2.456268 30.000000 0.000978 0.000978 -0.999999 
94.348839 2.587761 30.000000 0.000978 0.000978 -0.999999 
78.381294 0.668750 30.000000 0.000978 0.000978 -0.999999 
71.482872 -2.569024 30.000000 0.000978 0.000978 -0.999999 
69.242149 1.530580 30.000000 0.000978 0.000978 -0.999999 
70.210129 -1.816395 30.000000 0.000978 0.000978 -0.999999 
71.116112 -0.603963 30.000000 0.000978 0.000978 -0.999999 
75.117508 1.617376 30.000000 0.000978 0.000978 -0.999999 
71.397270 2.360897 30.000000 0.000978 0.000978 -0.999999 
99.096649 6.502590 30.000000 0.000978 0.000978 -0.999999 
99.590950 9.134777 30.000000 0.000978 0.000978 -0.999999 
99.131645 -7.556415 30.000000 0.000978 0.000978 -0.999999 
97.932259 -6.851701 30.000000 0.000978 0.000978 -0.999999 
97.227425 6.378426 31.970566 -0.921514 0.388343 0.001282 
100.384315 11.245416 32.174473 -0.728889 0.684630 0.001383 
103.246979 13.667602 30.727118 -0.555013 0.831841 0.001357 
103.915680 14.133055 31.253984 -0.512919 0.858436 0.001339 
118.388618 15.340117 30.171373 0.365926 0.930643 0.001266 
120.591110 14.246734 30.531540 0.500299 0.865851 0.001334 
124.509392 11.081728 30.425392 0.738126 0.674661 0.001380 
126.224190 8.851540 30.825371 0.842882 0.538096 0.001349 
127.408539 6.695487 30.502754 0.913864 0.406019 0.001289 
128.370041 3.872739 30.221296 0.972119 0.234487 0.001178 
128.806412 1.195264 32.156929 0.997389 0.072214 0.001047 
128.806412 0.397636 32.429893 0.999686 0.025017 0.001001 
128.410599 -3.651864 31.944851 0.975213 -0.221267 0.001171 
126.598198 -8.234233 30.459337 0.865851 -0.500299 0.001334 
124.085297 -11.559167 30.342001 0.711237 -0.702951 0.001381 
124.752724 -10.807782 31.573229 0.752490 -0.658602 0.001381 
123.023422 -12.532869 31.106789 0.646807 -0.762653 0.001379 
120.918854 -14.075539 30.530430 0.519223 -0.854638 0.001342 
116.285973 -15.990057 31.700752 0.237255 -0.971447 0.001180 
114.836746 -16.255085 30.266142 0.150135 -0.988665 0.001112 
110.367714 -16.337780 30.658136 -0.120950 -0.992658 0.001090 
108.096474 -15.868309 30.546848 -0.260274 -0.965534 0.001199 
102.737572 -13.313025 30.280975 -0.586138 -0.810210 0.001366 
103.100533 -13.565667 32.179924 -0.563126 -0.826370 0.001357 
100.443184 -11.304791 30.185009 -0.726206 -0.687475 0.001383 
99.205391 -9.853161 30.512142 -0.801148 -0.598464 0.001369 
98.141708 -8.296986 31.115160 -0.863341 -0.504619 0.001339 
97.242966 -6.413423 30.558363 -0.920595 -0.390517 0.001280 
112.844734 -4.453751 30.697758 -0.104293 0.994546 0.001075 
116.641121 -1.329515 31.331778 -0.954632 0.297786 0.001225 
116.670006 -1.213358 30.900200 -0.962384 0.271689 0.001208 
116.509010 1.765785 31.316349 -0.919277 -0.393609 0.001282 
113.682457 4.272079 30.801065 -0.291939 -0.956436 0.001222 
113.206619 4.390434 31.416344 -0.186429 -0.982468 0.001144 
111.971069 4.454959 32.150093 0.090153 -0.995927 0.001061 
108.380890 -2.016566 32.488804 0.892578 0.450890 0.001315 
120.586197 6.813242 31.093391 -0.997858 -0.065416 0.001038 
118.137627 7.859438 31.444332 0.642481 -0.766300 0.001376 
117.689880 7.215099 31.970242 0.941995 -0.335625 0.001248 
77.665726 -0.952449 31.381664 -0.294171 0.955752 0.001221 
116.557365 -5.860402 31.110157 0.990769 0.135556 0.001102 
119.322426 -6.414058 30.558161 -0.863341 0.504619 0.001339 
104.983170 -5.391687 32.021431 0.452981 -0.891519 0.001313 
104.624298 -5.646019 31.912893 0.694569 -0.719425 0.001381 
77.164635 -1.677446 31.724277 0.209925 -0.977717 0.001160 
76.383369 -2.715163 31.574429 0.997991 0.063348 0.001038 
90.825798 -2.803301 32.146877 0.000978 -0.999999 0.000978 
94.782722 -2.803301 31.681589 0.000978 -0.999999 0.000978 
101.574593 -2.803301 32.453629 0.000978 -0.999999 0.000978 
85.240219 -2.803301 32.190765 0.000978 -0.999999 0.000978 
98.289490 -2.803301 30.336893 0.000978 -0.999999 0.000978 
80.406342 -2.803301 31.452457 0.000978 -0.999999 0.000978 
89.674797 -2.803301 31.125645 0.000978 -0.999999 0.000978 
102.374367 -4.441806 30.097496 -0.999999 0.000978 0.000978 
98.737251 -5.303301 31.699657 0.000978 0.999999 0.000978 
102.190109 -5.303301 32.416031 0.000978 0.999999 0.000978 
99.191093 5.303301 30.207090 0.000978 -0.999999 0.000978 
101.350838 5.303301 31.473227 0.000978 -0.999999 0.000978 
102.374367 3.012827 31.994791 -0.999999 0.000978 0.000978 
91.554802 2.803301 31.458519 0.000978 0.999999 0.000978 
79.667557 2.803301 31.626190 0.000978 0.999999 0.000978 
86.510406 2.803301 32.352158 0.000978 0.999999 0.000978 
83.627197 2.803301 31.494629 0.000978 0.999999 0.000978 
95.331306 2.803301 31.138861 0.000978 0.999999 0.000978 
98.744347 2.803301 30.052996 0.000978 0.999999 0.000978 
100.290833 2.803301 32.132240 0.000978 0.999999 0.000978 
76.379456 2.581577 32.315578 0.997400 0.072063 0.001044 
75.268852 2.803301 32.401196 0.000978 0.999999 0.000978 
70.882362 2.803301 30.905790 0.000978 0.999999 0.000978 
73.512802 2.803301 30.432722 0.000978 0.999999 0.000978 
67.374367 -0.966855 32.114864 -0.999999 0.000978 0.000978 
76.046333 -2.803301 31.997711 0.000978 -0.999999 0.000978 
68.082748 -2.803301 30.343683 0.000978 -0.999999 0.000978 
69.600861 -2.803301 30.799826 0.000978 -0.999999 0.000978 
28.719273 4.593290 48.608585 0.000978 0.999999 0.000978 
27.878286 4.593290 52.842571 0.000978 0.999999 0.000978 
25.661787 4.593290 51.801476 0.000978 0.999999 0.000978 
27.314734 4.593290 54.979443 0.000978 0.999999 0.000978 
127.427269 85.369255 55.201767 0.984919 -0.173011 0.001131 
127.236961 84.289978 55.214806 0.984919 -0.173011 0.001131 
127.004868 82.973701 52.771576 0.984919 -0.173011 0.001131 
127.077820 83.387428 50.065201 0.984919 -0.173011 0.001131 
132.569550 82.427292 47.500000 0.000978 0.000978 0.999999 
132.892242 81.841049 47.500000 0.000978 0.000978 0.999999 
