ply
format ascii 1.0
comment Created by CloudCompare v2.12.0 (Kyiv)
comment Created 2023-02-04T20:20:08
obj_info Generated by CloudCompare!
element vertex 803
property float x
property float y
property float z
property float nx
property float ny
property float nz
end_header
7.250404 1.895870 50.384422 0.967197 0.254023 0.001193 
7.410923 -0.676605 55.364773 0.995910 -0.090344 0.001063 
7.049472 -2.411848 56.639641 0.945912 -0.324419 0.001243 
5.857128 -4.581539 47.523819 0.787127 -0.616789 0.001374 
5.598763 -4.918248 53.311615 0.751123 -0.660161 0.001378 
4.326112 -6.053124 53.523258 0.581753 -0.813364 0.001362 
5.217728 5.368964 39.678288 0.697373 0.716707 0.001381 
35.067646 -0.844684 27.500000 0.000978 0.000978 -0.999999 
49.435711 -1.722739 27.500000 0.000978 0.000978 -0.999999 
50.570549 -2.699137 27.500000 0.000978 0.000978 -0.999999 
59.770203 -3.450767 27.500000 0.000978 0.000978 -0.999999 
62.530975 1.356711 27.500000 0.000978 0.000978 -0.999999 
35.635201 4.072815 27.500000 0.000978 0.000978 -0.999999 
15.931931 5.174464 27.500000 0.000978 0.000978 -0.999999 
40.101334 5.173106 27.500000 0.000978 0.000978 -0.999999 
97.013710 3.278841 27.500000 0.000978 0.000978 -0.999999 
84.764595 2.849629 27.500000 0.000978 0.000978 -0.999999 
40.490013 1.969398 27.500000 0.000978 0.000978 -0.999999 
37.377895 1.048804 27.500000 0.000978 0.000978 -0.999999 
43.994987 0.666852 27.500000 0.000978 0.000978 -0.999999 
30.954397 0.549627 27.500000 0.000978 0.000978 -0.999999 
13.527115 -2.418976 27.500000 0.000978 0.000978 -0.999999 
72.032745 3.146289 27.500000 0.000978 0.000978 -0.999999 
53.314716 -5.241850 27.500000 0.000978 0.000978 -0.999999 
69.122566 -4.912607 27.500000 0.000978 0.000978 -0.999999 
6.170925 4.304349 41.854042 0.813990 0.565804 0.131479 
7.626924 3.158046 39.796715 0.774951 0.314774 0.548058 
9.052227 -4.474882 38.090919 0.419414 -0.204556 0.884448 
39.305489 -1.964098 37.500000 0.000978 0.000978 0.999999 
58.571793 -4.238121 37.500000 0.000978 0.000978 0.999999 
45.411800 -3.212288 37.500000 0.000978 0.000978 0.999999 
47.535511 -4.359059 37.500000 0.000978 0.000978 0.999999 
48.918571 1.019482 37.500000 0.000978 0.000978 0.999999 
42.914993 1.885498 37.500000 0.000978 0.000978 0.999999 
59.219555 4.074273 37.500000 0.000978 0.000978 0.999999 
55.783310 4.279771 37.500000 0.000978 0.000978 0.999999 
42.747025 4.115315 37.500000 0.000978 0.000978 0.999999 
66.276367 2.227886 37.500000 0.000978 0.000978 0.999999 
61.582809 -0.771880 37.500000 0.000978 0.000978 0.999999 
72.310532 2.355108 37.500000 0.000978 0.000978 0.999999 
104.094421 -0.859097 37.500000 0.000978 0.000978 0.999999 
119.550331 -11.674263 37.500000 0.000978 0.000978 0.999999 
114.639854 -7.423222 37.500000 0.000978 0.000978 0.999999 
114.035820 -10.234093 37.500000 0.000978 0.000978 0.999999 
110.640579 -6.200254 37.500000 0.000978 0.000978 0.999999 
107.954865 -11.769444 37.500000 0.000978 0.000978 0.999999 
107.356392 -5.129221 37.500000 0.000978 0.000978 0.999999 
123.254059 1.845882 37.500000 0.000978 0.000978 0.999999 
124.531761 5.614170 37.500000 0.000978 0.000978 0.999999 
118.856598 9.683406 37.500000 0.000978 0.000978 0.999999 
73.974991 3.788403 37.500000 0.000978 0.000978 0.999999 
80.491066 3.001584 37.500000 0.000978 0.000978 0.999999 
77.172043 -1.132524 37.500000 0.000978 0.000978 0.999999 
28.315151 1.242018 37.500000 0.000978 0.000978 0.999999 
20.637531 0.875968 37.500000 0.000978 0.000978 0.999999 
12.091291 -4.539830 37.500000 0.000978 0.000978 0.999999 
12.830427 -1.630956 37.500000 0.000978 0.000978 0.999999 
13.174216 3.823653 37.500000 0.000978 0.000978 0.999999 
92.451859 -7.130929 37.500000 0.000978 0.000978 0.999999 
83.204803 -1.527337 37.500000 0.000978 0.000978 0.999999 
87.611496 -2.221585 37.500000 0.000978 0.000978 0.999999 
87.856934 4.146801 37.500000 0.000978 0.000978 0.999999 
98.147736 10.010654 37.500000 0.000978 0.000978 0.999999 
95.009148 7.840964 37.500000 0.000978 0.000978 0.999999 
86.877129 4.329189 37.500000 0.000978 0.000978 0.999999 
104.059692 -5.785760 37.500000 0.000978 0.000978 0.999999 
113.231491 8.911030 37.500000 0.000978 0.000978 0.999999 
8.213522 5.303301 34.164532 0.000978 0.999999 0.000978 
10.843157 5.303301 28.654865 0.000978 0.999999 0.000978 
42.191742 5.303301 34.731571 0.000978 0.999999 0.000978 
16.248619 5.303301 36.859299 0.000978 0.999999 0.000978 
41.226902 5.303301 31.397608 0.000978 0.999999 0.000978 
45.732010 5.303301 34.343952 0.000978 0.999999 0.000978 
49.366325 5.303301 33.319485 0.000978 0.999999 0.000978 
29.020092 5.303301 33.207809 0.000978 0.999999 0.000978 
38.693707 5.303301 32.451946 0.000978 0.999999 0.000978 
43.234459 5.303301 35.029671 0.000978 0.999999 0.000978 
57.821304 5.303301 35.867973 0.000978 0.999999 0.000978 
26.442181 5.303301 36.268944 0.000978 0.999999 0.000978 
40.001118 5.303301 37.462303 0.000978 0.999999 0.000978 
96.322662 5.303301 31.110786 0.000978 0.999999 0.000978 
79.929344 5.303301 30.835331 0.000978 0.999999 0.000978 
25.392059 5.303301 28.451086 0.000978 0.999999 0.000978 
41.023781 5.303301 28.258841 0.000978 0.999999 0.000978 
70.832458 5.303301 30.483582 0.000978 0.999999 0.000978 
64.972092 5.303301 27.716190 0.000978 0.999999 0.000978 
42.768772 5.303301 29.348913 0.000978 0.999999 0.000978 
-2.734072 -1.933502 33.031109 0.816854 0.576843 0.001364 
-1.282339 -3.090659 16.676935 0.384343 0.923189 0.001277 
-0.044203 -3.369181 52.886902 0.014865 0.999889 0.000991 
0.518081 -3.306793 5.908332 -0.155160 0.987889 0.001116 
0.416663 -3.320145 56.367954 -0.123363 0.992361 0.001092 
0.921237 -3.240233 5.413703 -0.274561 0.961569 0.001210 
2.220848 -2.513583 53.831791 -0.661530 0.749918 0.001381 
2.653580 -2.038401 27.883802 -0.792878 0.609379 0.001369 
2.719036 -1.953097 24.594513 -0.812439 0.583045 0.001365 
3.066679 -1.340232 18.190685 -0.916186 0.400751 0.001289 
3.300630 -0.564900 27.932594 -0.985368 0.170436 0.001129 
3.306097 -0.523369 37.332340 -0.987489 0.157685 0.001118 
3.270018 0.797421 25.596739 -0.971313 -0.237800 0.001183 
3.226594 0.954163 0.099727 -0.958392 -0.285453 0.001215 
3.047969 1.385403 54.132912 -0.910632 -0.413217 0.001295 
2.800865 1.846455 31.107754 -0.834745 -0.550634 0.001353 
1.902267 2.758039 47.902035 -0.567510 -0.823366 0.001361 
1.508207 2.997102 6.332505 -0.449834 -0.893111 0.001311 
1.264407 3.098087 51.452862 -0.378186 -0.925729 0.001273 
0.694069 3.283624 14.219356 -0.207235 -0.978290 0.001158 
-0.677221 3.285842 25.587543 0.202338 -0.979315 0.001156 
-0.923037 3.239487 15.838369 0.274561 -0.961569 0.001210 
-2.102391 2.604478 40.569435 0.628881 -0.777500 0.001376 
-2.603447 2.103736 5.666517 0.777500 -0.628881 0.001376 
-2.766174 1.891666 52.325638 0.825507 -0.564391 0.001360 
-3.161837 1.110500 15.967822 0.943059 -0.332624 0.001246 
-3.074849 1.320509 44.366585 0.918878 -0.394539 0.001285 
-3.312081 0.477919 54.901512 0.989726 -0.142973 0.001108 
-3.290754 -0.639914 9.254376 0.981453 0.191699 0.001148 
-3.022905 -1.445912 0.611897 0.901868 0.432009 0.001305 
33.098412 0.696926 35.424816 -0.827633 -0.561268 0.001359 
17.374941 1.209997 36.948559 -0.243373 -0.969932 0.001187 
23.212027 -0.483941 28.010202 -0.920203 0.391439 0.001283 
22.993029 0.834261 34.509457 -0.742124 -0.670261 0.001382 
12.961788 -0.873867 34.703754 -0.715359 0.698755 0.001384 
11.236987 -0.919913 33.507507 0.673154 0.739501 0.001382 
11.479292 1.091839 27.629631 0.478202 -0.878249 0.001325 
28.000658 -0.824314 28.825520 -0.748548 0.663079 0.001379 
5.330865 -5.303301 31.168232 0.000978 -0.999999 0.000978 
7.164422 -5.303301 37.238049 0.000978 -0.999999 0.000978 
7.067613 -5.303301 31.770601 0.000978 -0.999999 0.000978 
8.428017 -5.303301 37.869198 0.000978 -0.999999 0.000978 
8.927393 -5.303301 33.813740 0.000978 -0.999999 0.000978 
9.317074 -5.303301 30.009649 0.000978 -0.999999 0.000978 
10.751834 -5.303301 30.247721 0.000978 -0.999999 0.000978 
13.173659 -5.303301 34.712269 0.000978 -0.999999 0.000978 
21.680061 -5.303301 34.261692 0.000978 -0.999999 0.000978 
11.338666 -5.303301 33.326797 0.000978 -0.999999 0.000978 
25.700912 -5.303301 31.741247 0.000978 -0.999999 0.000978 
26.638069 -5.303301 33.884689 0.000978 -0.999999 0.000978 
20.115862 -5.303301 31.738058 0.000978 -0.999999 0.000978 
69.716217 -5.303301 29.523705 0.000978 -0.999999 0.000978 
50.287632 -5.303301 30.191813 0.000978 -0.999999 0.000978 
31.278011 -5.303301 28.864611 0.000978 -0.999999 0.000978 
36.475506 -5.303301 29.145214 0.000978 -0.999999 0.000978 
31.294006 -5.303301 28.998362 0.000978 -0.999999 0.000978 
62.273663 -5.303301 28.573431 0.000978 -0.999999 0.000978 
95.567841 -5.303301 29.852577 0.000978 -0.999999 0.000978 
96.534195 -5.303301 30.834883 0.000978 -0.999999 0.000978 
36.892220 -5.303301 37.316189 0.000978 -0.999999 0.000978 
48.657814 -5.303301 35.685467 0.000978 -0.999999 0.000978 
59.909798 -5.303301 34.369987 0.000978 -0.999999 0.000978 
80.650307 2.803301 29.825920 0.000978 -0.999999 0.000978 
87.724922 2.803301 28.655117 0.000978 -0.999999 0.000978 
74.323578 2.803301 30.080626 0.000978 -0.999999 0.000978 
91.763420 -2.803301 31.092064 0.000978 0.999999 0.000978 
86.940453 -2.803301 29.152077 0.000978 0.999999 0.000978 
82.468559 -2.803301 32.435207 0.000978 0.999999 0.000978 
88.771988 -2.803301 28.014820 0.000978 0.999999 0.000978 
76.426331 -2.958482 32.794571 0.951115 0.308835 0.001230 
77.592171 3.623525 31.997810 -0.218539 -0.975828 0.001169 
68.205482 -2.803301 31.135334 0.000978 0.999999 0.000978 
82.647209 0.021654 34.890846 -0.995256 0.001069 0.097281 
73.130974 5.770667 33.951977 0.357624 -0.001264 0.933865 
74.629585 -4.503523 35.241447 -0.976433 0.001167 -0.215818 
116.619774 -6.138444 36.157120 0.946173 0.323658 0.001240 
118.979416 8.207352 35.356022 0.076536 -0.997066 0.001048 
106.566528 4.175604 36.183758 0.101730 0.994811 0.001071 
108.959106 2.896621 35.996655 0.762653 -0.646807 0.001379 
114.875473 3.728434 34.979156 -0.556887 -0.830587 0.001355 
108.342430 13.401548 33.816353 -0.288352 0.957524 0.001217 
108.913132 13.507077 33.210819 -0.248404 0.968656 0.001189 
111.545319 13.946166 36.295063 -0.058965 0.998260 0.001034 
123.928459 7.839097 35.400673 0.827633 0.561268 0.001359 
105.744034 -12.261975 35.238667 -0.476155 -0.879361 0.001326 
82.476814 -7.240629 37.382099 -0.162760 -0.986665 0.001122 
71.951134 -5.748329 33.908253 -0.116148 -0.993231 0.001085 
70.067551 -5.540057 36.025833 -0.106647 -0.994296 0.001077 
85.409706 -7.790616 36.809631 -0.173397 -0.984851 0.001133 
92.255302 -9.152402 33.760685 -0.199666 -0.979863 0.001154 
81.810204 7.122422 36.568455 -0.160219 0.987081 0.001120 
72.894424 5.866881 36.347630 -0.120950 0.992658 0.001090 
69.472763 5.475337 36.574875 -0.104293 0.994546 0.001075 
86.770721 8.061361 35.755928 -0.178585 0.983924 0.001137 
70.553474 2.621598 32.500000 0.000978 0.000978 -0.999999 
80.573212 0.964723 32.500000 0.000978 0.000978 -0.999999 
98.423058 -0.435898 32.500000 0.000978 0.000978 -0.999999 
87.998009 0.252910 32.500000 0.000978 0.000978 -0.999999 
103.845261 1.346415 32.500000 0.000978 0.000978 -0.999999 
77.229111 6.148864 32.500000 0.000978 0.000978 -0.999999 
99.631805 6.846126 32.500000 0.000978 0.000978 -0.999999 
101.094589 7.209978 32.500000 0.000978 0.000978 -0.999999 
108.686005 12.343657 32.500000 0.000978 0.000978 -0.999999 
116.936234 9.801820 32.500000 0.000978 0.000978 -0.999999 
124.979485 1.305406 32.500000 0.000978 0.000978 -0.999999 
113.770462 -8.952945 32.500000 0.000978 0.000978 -0.999999 
107.345161 -7.642249 32.500000 0.000978 0.000978 -0.999999 
90.005089 -8.622474 32.500000 0.000978 0.000978 -0.999999 
84.583450 -7.059557 32.500000 0.000978 0.000978 -0.999999 
102.379860 -3.008490 32.500000 0.000978 0.000978 -0.999999 
97.953445 -2.617680 32.500000 0.000978 0.000978 -0.999999 
105.471085 -2.326027 32.500000 0.000978 0.000978 -0.999999 
118.762917 -2.643977 32.500000 0.000978 0.000978 -0.999999 
83.520126 0.047635 32.500000 0.000978 0.000978 0.999999 
84.776077 -0.227039 32.500000 0.000978 0.000978 0.999999 
82.215477 1.230587 32.500000 0.000978 0.000978 0.999999 
106.942635 3.344329 32.500000 0.000978 0.000978 0.999999 
105.293602 2.738039 32.500000 0.000978 0.000978 0.999999 
110.792549 11.271805 32.500000 0.000978 0.000978 0.999999 
113.401802 7.990856 32.500000 0.000978 0.000978 0.999999 
114.886803 14.119128 32.500000 0.000978 0.000978 0.999999 
121.467468 4.878418 32.500000 0.000978 0.000978 0.999999 
122.360458 8.842922 32.500000 0.000978 0.000978 0.999999 
120.740936 10.259787 32.500000 0.000978 0.000978 0.999999 
116.496956 -2.255684 32.500000 0.000978 0.000978 0.999999 
115.535576 -3.786842 32.500000 0.000978 0.000978 0.999999 
109.381752 -8.636193 32.500000 0.000978 0.000978 0.999999 
108.567108 -11.366746 32.500000 0.000978 0.000978 0.999999 
109.510002 -4.863177 32.500000 0.000978 0.000978 0.999999 
109.128471 13.828749 32.500000 0.000978 0.000978 0.999999 
124.987793 -6.444426 32.500000 0.000978 0.000978 0.999999 
120.623947 -7.246893 32.500000 0.000978 0.000978 0.999999 
119.041473 -11.554110 32.500000 0.000978 0.000978 0.999999 
114.431709 -15.361938 32.500000 0.000978 0.000978 0.999999 
104.956184 -5.061997 32.500000 0.000978 0.000978 0.999999 
104.878784 -8.896035 32.500000 0.000978 0.000978 0.999999 
72.415359 -0.284433 32.500000 0.000978 0.000978 0.999999 
88.125603 -1.850742 32.500000 0.000978 0.000978 0.999999 
69.311211 -2.742142 32.500000 0.000978 0.000978 0.999999 
108.229454 -4.009738 30.000000 0.000978 0.000978 -0.999999 
112.469963 -5.986172 30.000000 0.000978 0.000978 -0.999999 
109.771355 -11.455777 30.000000 0.000978 0.000978 -0.999999 
108.597946 -11.210463 30.000000 0.000978 0.000978 -0.999999 
123.375389 0.844654 30.000000 0.000978 0.000978 -0.999999 
121.910164 0.122655 30.000000 0.000978 0.000978 -0.999999 
118.899490 -14.819332 30.000000 0.000978 0.000978 -0.999999 
114.200836 8.725740 30.000000 0.000978 0.000978 -0.999999 
118.203125 12.010281 30.000000 0.000978 0.000978 -0.999999 
120.578987 9.692967 30.000000 0.000978 0.000978 -0.999999 
117.824257 1.866771 30.000000 0.000978 0.000978 -0.999999 
111.853210 15.888157 30.000000 0.000978 0.000978 -0.999999 
103.304108 4.688020 30.000000 0.000978 0.000978 -0.999999 
105.000420 11.485755 30.000000 0.000978 0.000978 -0.999999 
91.562347 -2.327587 30.000000 0.000978 0.000978 -0.999999 
92.310860 0.830725 30.000000 0.000978 0.000978 -0.999999 
73.925827 -0.221172 30.000000 0.000978 0.000978 -0.999999 
99.040291 5.500059 30.000000 0.000978 0.000978 -0.999999 
112.007332 16.441799 31.248295 -0.022971 0.999736 0.000999 
125.221161 10.280413 32.281773 0.779928 0.625868 0.001376 
128.806412 -1.317290 31.841444 0.996878 -0.078950 0.001053 
128.003265 -5.130381 32.310093 0.950151 -0.311788 0.001232 
113.326416 4.360637 32.138584 -0.213106 -0.977028 0.001165 
120.219093 7.688129 32.211567 -0.757597 -0.652721 0.001380 
108.080406 5.057933 31.161436 -0.916186 0.400751 0.001289 
119.452217 -5.208234 30.715544 -0.953933 -0.300017 0.001225 
78.346870 -2.453017 30.901918 -0.979863 -0.199666 0.001154 
77.070282 -1.705020 31.516245 0.305890 -0.952066 0.001228 
95.764885 -2.803301 30.926888 0.000978 -0.999999 0.000978 
83.714584 -2.803301 30.040028 0.000978 -0.999999 0.000978 
100.059425 -5.303301 30.142708 0.000978 0.999999 0.000978 
98.432137 2.803301 31.077822 0.000978 0.999999 0.000978 
27.036026 4.593290 55.473942 0.000978 0.999999 0.000978 
127.369637 85.042427 49.232220 0.984919 -0.173011 0.001131 
139.433640 81.192375 47.500000 0.000978 0.000978 0.999999 
140.886856 79.115402 47.500000 0.000978 0.000978 0.999999 
153.076233 73.117012 47.500000 0.000978 0.000978 0.999999 
169.694473 62.998646 47.500000 0.000978 0.000978 0.999999 
171.322708 61.508327 47.500000 0.000978 0.000978 0.999999 
175.894684 56.079693 47.500000 0.000978 0.000978 0.999999 
192.696091 28.429876 47.500000 0.000978 0.000978 0.999999 
195.000580 19.314323 47.500000 0.000978 0.000978 0.999999 
118.886116 -82.160324 46.341824 -0.079565 0.993998 0.075082 
182.796875 -42.904377 46.346733 -0.850866 0.519580 0.077866 
193.975067 10.520042 46.377068 -0.986143 -0.129662 0.103491 
141.307922 77.326591 47.052853 -0.262167 -0.713412 0.649856 
118.578690 82.226715 46.904305 -0.063095 -0.848272 0.525788 
62.381824 65.850655 47.014374 0.478304 -0.625991 0.615922 
47.357014 51.091000 47.122055 0.560861 -0.441033 0.700660 
51.903229 -56.416935 46.949490 0.604108 0.563495 0.563495 
165.299561 -63.546589 47.024464 -0.500682 0.598459 0.625431 
179.610458 48.379765 47.266781 -0.468866 -0.329942 0.819331 
169.367004 60.548714 47.364067 -0.301975 -0.322801 0.897001 
79.523041 76.218399 47.380184 0.169274 -0.374110 0.911805 
54.540348 -59.642914 47.405514 0.246867 0.263795 0.932453 
94.320213 -81.253990 47.398235 0.079161 0.366289 0.927128 
142.996475 -77.664307 47.472233 -0.064911 0.156967 0.985468 
156.063568 -71.063835 47.458897 -0.129518 0.214153 0.968176 
42.613129 -43.909195 46.688385 0.790841 0.498888 0.354515 
123.276619 -81.751625 46.838837 -0.118896 0.872379 0.474150 
189.574875 -28.662939 46.604187 -0.899328 0.333359 0.282985 
190.448639 -26.264561 46.750782 -0.868013 0.288321 0.404259 
93.072006 80.522545 47.266979 0.140425 -0.554310 0.820379 
36.062038 -32.413258 47.310032 0.483358 0.206293 0.850770 
78.784508 -75.541359 47.156494 0.275883 0.626716 0.728777 
98.524681 -81.680511 47.269238 0.087805 0.562813 0.821908 
195.195679 -0.357869 47.280109 -0.556887 -0.001355 0.830587 
198.769760 -8.631167 47.500000 0.000978 0.000978 0.999999 
198.577393 -12.890269 47.500000 0.000978 0.000978 0.999999 
192.664398 -23.755880 47.500000 0.000978 0.000978 0.999999 
177.668289 -52.931725 47.500000 0.000978 0.000978 0.999999 
151.751694 -76.116539 47.500000 0.000978 0.000978 0.999999 
145.306122 -79.892357 47.500000 0.000978 0.000978 0.999999 
133.537872 -81.721535 47.500000 0.000978 0.000978 0.999999 
102.820282 -83.017464 47.500000 0.000978 0.000978 0.999999 
91.766266 -82.250168 47.500000 0.000978 0.000978 0.999999 
87.840469 -81.492805 47.500000 0.000978 0.000978 0.999999 
79.517563 -76.905151 47.500000 0.000978 0.000978 0.999999 
73.518822 -75.158066 47.500000 0.000978 0.000978 0.999999 
58.311306 -66.507477 47.500000 0.000978 0.000978 0.999999 
51.627869 -62.617100 47.500000 0.000978 0.000978 0.999999 
46.910282 -55.039753 47.500000 0.000978 0.000978 0.999999 
41.620987 -48.234699 47.500000 0.000978 0.000978 0.999999 
37.353802 -44.392452 47.500000 0.000978 0.000978 0.999999 
25.606510 -8.335055 47.500000 0.000978 0.000978 0.999999 
107.647827 82.176186 42.938705 0.058843 -0.998267 0.001032 
121.598587 81.940666 44.320690 -0.111381 -0.993777 0.001081 
132.445847 79.826401 46.233231 -0.242814 -0.970072 0.001184 
145.145325 75.543716 43.863342 -0.399807 -0.916599 0.001286 
153.834259 71.123009 44.770573 -0.504619 -0.863341 0.001339 
158.346619 68.410866 43.818348 -0.556887 -0.830587 0.001355 
164.470322 63.731331 44.698505 -0.633537 -0.773712 0.001374 
166.069229 62.440407 45.038147 -0.652721 -0.757597 0.001380 
173.689758 54.883419 44.986702 -0.744734 -0.667359 0.001382 
172.453995 56.239288 43.480236 -0.728889 -0.684630 0.001383 
179.571075 47.519272 42.512768 -0.816854 -0.576843 0.001364 
185.064255 38.680729 42.945343 -0.882755 -0.469832 0.001323 
192.601120 19.185884 43.287388 -0.972654 -0.232258 0.001179 
194.721039 -0.551386 44.900665 -0.999976 0.006896 0.000985 
193.621933 -13.048752 43.648304 -0.987433 0.158034 0.001121 
191.307892 -23.378078 43.073456 -0.959055 0.283219 0.001216 
189.576324 -28.657337 44.143112 -0.937612 0.347682 0.001255 
188.393127 -31.889988 42.629543 -0.921899 0.387428 0.001279 
187.079620 -34.651573 45.971298 -0.907768 0.419470 0.001299 
177.494812 -50.306725 46.170948 -0.790530 0.612421 0.001370 
168.863113 -60.035580 43.803593 -0.684630 0.728889 0.001383 
160.092468 -67.073616 45.433846 -0.579946 0.814654 0.001365 
157.111572 -69.239540 44.478371 -0.542465 0.840077 0.001353 
148.843338 -73.937775 42.797562 -0.443546 0.896251 0.001308 
136.452133 -78.811165 44.476307 -0.291939 0.956436 0.001222 
132.250366 -80.037125 45.572994 -0.240583 0.970628 0.001185 
127.123619 -81.018616 44.808086 -0.178585 0.983924 0.001137 
126.478012 -81.239990 43.049267 -0.170816 0.985302 0.001131 
119.517807 -82.166138 44.391991 -0.085761 0.996315 0.001059 
102.498985 -81.782143 44.309372 0.120688 0.992690 0.001087 
89.629425 -79.139374 44.855961 0.276796 0.960928 0.001209 
72.556618 -72.122894 43.887337 0.482479 0.875906 0.001329 
63.975639 -66.645271 45.313705 0.587928 0.808912 0.001364 
57.365631 -61.221382 45.669556 0.668888 0.743362 0.001379 
50.833870 -54.720478 43.620853 0.747332 0.664449 0.001381 
46.281639 -49.280991 43.812656 0.802126 0.597153 0.001366 
39.093300 -37.638065 43.723877 0.889364 0.457199 0.001318 
37.150200 -33.721844 45.579727 0.912042 0.410095 0.001294 
33.155300 -22.822977 45.139984 0.960928 0.276796 0.001209 
30.204021 -5.439306 44.799053 0.997849 0.065552 0.001041 
30.069668 2.010880 43.063190 0.999686 -0.025017 0.001001 
33.093525 22.405092 44.327751 0.962384 -0.271689 0.001208 
37.990234 35.220074 43.075577 0.903843 -0.427862 0.001300 
51.312634 55.175079 46.004055 0.742124 -0.670261 0.001382 
52.382057 56.376762 43.652199 0.728889 -0.684630 0.001383 
69.235245 70.098175 43.150978 0.523571 -0.851981 0.001346 
77.794540 74.716255 45.207771 0.419470 -0.907768 0.001299 
80.910065 76.038261 43.113625 0.381263 -0.924466 0.001275 
86.870857 78.402344 45.787800 0.309560 -0.950879 0.001233 
99.731163 81.485107 42.835869 0.152980 -0.988229 0.001117 
122.391083 83.128159 57.674393 -0.118801 -0.992913 0.003270 
122.712112 83.108276 58.551796 -0.120918 -0.976067 0.180753 
145.561996 76.885704 57.900166 -0.397611 -0.916234 0.049203 
184.299957 42.800591 58.718803 -0.839489 -0.499443 0.214047 
186.388367 39.147186 57.760738 -0.883493 -0.467889 0.022791 
192.168945 -25.441029 58.461704 -0.940046 0.299665 0.162832 
187.068924 -37.796520 57.931747 -0.889993 0.452516 0.056052 
159.219452 -69.523987 58.902794 -0.539547 0.803878 0.250337 
123.996719 -83.067772 58.744324 -0.135488 0.966482 0.218071 
97.985512 -82.553047 58.228165 0.171511 0.978476 0.114752 
74.676476 -74.840698 58.417835 0.443570 0.882805 0.154599 
63.799519 -68.299934 58.451859 0.572538 0.803957 0.160791 
49.996498 -55.875801 58.312935 0.738664 0.660752 0.133349 
45.546455 -50.487823 58.377937 0.789947 0.595820 0.144849 
28.699884 5.071128 58.676182 0.976934 -0.059466 0.205095 
102.888992 83.188980 58.078362 0.112324 -0.990070 0.084532 
111.162437 86.916672 62.356007 0.008728 -0.322941 0.946379 
120.517456 86.374527 62.229267 -0.038049 -0.384430 0.922370 
129.694565 84.315079 61.949505 -0.098414 -0.500627 0.860051 
128.257721 84.212212 61.704548 -0.099992 -0.569518 0.815874 
64.117874 72.218117 62.323879 0.191617 -0.277087 0.941544 
26.278950 -3.825225 62.048573 0.474297 0.022841 0.880069 
25.984129 -9.620842 62.301949 0.347617 0.037475 0.936887 
42.325668 -51.821140 62.420143 0.232869 0.174319 0.956758 
76.767860 -79.416229 62.362671 0.132345 0.290090 0.947804 
99.563065 -86.204994 62.445930 0.041110 0.275311 0.960476 
153.026016 -77.004433 62.368431 -0.146258 0.280439 0.948663 
198.426208 -11.414688 62.232052 -0.381623 0.048858 0.923026 
191.181992 36.758675 62.310337 -0.312831 -0.146170 0.938494 
177.351151 57.822021 62.327312 -0.253665 -0.223170 0.941195 
138.139084 82.844933 62.290878 -0.114959 -0.336761 0.934546 
134.432083 83.659317 62.161625 -0.109712 -0.406906 0.906858 
110.557205 84.003952 59.651417 0.022262 -0.915358 0.402024 
88.661606 80.509735 59.514381 0.264340 -0.888599 0.374855 
68.393173 71.563210 59.616199 0.483936 -0.781743 0.393299 
38.812309 40.239380 59.009029 0.844984 -0.460201 0.272427 
34.394772 31.462259 59.823387 0.834210 -0.334627 0.438314 
29.297260 11.369035 59.295059 0.935517 -0.126274 0.329943 
28.598372 -0.115643 59.074566 0.958392 0.001215 0.285453 
48.334320 -54.418900 59.479008 0.709167 0.601072 0.368505 
82.102448 -78.226982 59.394810 0.336814 0.873278 0.352054 
99.626602 -82.964813 59.027634 0.145732 0.950600 0.274083 
115.242104 -83.698509 58.985119 -0.033291 0.962966 0.267559 
131.337387 -81.828346 59.648941 -0.209813 0.890605 0.403487 
162.782516 -67.194221 59.682495 -0.549404 0.727589 0.410816 
190.416977 -30.865889 59.346375 -0.874961 0.342376 0.342376 
190.143448 -32.634789 60.131493 -0.801090 0.336044 0.495306 
195.679260 -12.247222 59.961849 -0.876829 0.127721 0.463528 
139.791260 79.327431 59.416210 -0.302952 -0.884740 0.354197 
116.901604 84.578468 60.704361 -0.038025 -0.787262 0.615445 
66.457413 71.034584 60.665081 0.435633 -0.662629 0.609218 
48.310749 55.190075 60.629131 0.609683 -0.518484 0.599550 
38.046486 39.961807 60.198627 0.758008 -0.407654 0.509158 
36.330536 37.558426 60.833721 0.689629 -0.337478 0.640719 
33.511505 30.815041 60.699791 0.735567 -0.285611 0.614302 
28.786123 -12.647541 60.577297 0.798729 0.122541 0.589081 
31.354908 -23.443645 60.272629 0.819067 0.236002 0.522907 
35.853020 -36.348862 60.807880 0.694461 0.336659 0.635912 
38.690285 -42.035286 60.839081 0.665148 0.381263 0.642041 
56.655491 -63.392593 60.260826 0.560658 0.641473 0.523617 
82.157097 -78.860336 60.491837 0.290931 0.767868 0.570734 
129.899963 -82.788872 60.717609 -0.168687 0.767450 0.618519 
139.961502 -80.302238 61.049667 -0.240827 0.691001 0.681557 
196.535583 -11.493002 60.962959 -0.739243 0.101407 0.665760 
193.096939 24.352160 60.206291 -0.822857 -0.248555 0.511005 
192.706604 26.359222 60.352676 -0.799967 -0.261437 0.540095 
171.377274 60.431190 60.439270 -0.577185 -0.594111 0.560259 
168.554703 63.480492 60.896446 -0.498860 -0.569405 0.653389 
142.043594 79.027603 60.258247 -0.299214 -0.799488 0.520855 
90.409859 82.855049 61.732998 0.153105 -0.548503 0.822012 
64.238297 70.419212 61.418056 0.373008 -0.535894 0.757418 
64.265640 70.588875 61.514763 0.360404 -0.515556 0.777374 
57.197056 65.710846 61.801174 0.357263 -0.417070 0.835713 
32.957787 31.939907 61.638309 0.555949 -0.217143 0.802353 
27.041546 4.191925 61.386066 0.660250 -0.032379 0.750348 
27.841511 -10.313501 61.239273 0.692892 0.083147 0.716231 
34.344559 -36.242863 61.962299 0.460046 0.214288 0.861649 
52.649185 -60.673515 61.274670 0.482421 0.492368 0.724461 
52.370438 -61.428261 61.822544 0.379083 0.391667 0.838387 
102.503853 -84.792984 61.447571 0.073576 0.641990 0.763175 
154.001541 -74.294022 61.329174 -0.331403 0.586827 0.738787 
173.202759 -60.129993 61.611965 -0.433833 0.417706 0.798318 
197.508057 -11.277810 61.760521 -0.558805 0.072517 0.826122 
193.879486 27.258829 61.760899 -0.532894 -0.178632 0.827112 
188.100403 40.639771 61.851471 -0.471354 -0.259475 0.842910 
177.617996 55.016747 61.462677 -0.487998 -0.419449 0.765454 
152.397659 76.006493 61.845024 -0.246878 -0.479956 0.841839 
121.863197 -83.161674 54.917465 -0.113760 0.993508 0.001083 
119.566864 -83.406822 50.182350 -0.085761 0.996315 0.001059 
117.951576 -83.552971 51.370861 -0.067624 0.997710 0.001040 
115.572220 -83.610031 57.090576 -0.037537 0.999295 0.001015 
30.070541 -15.128342 57.609219 0.983522 0.180786 0.001137 
28.704527 -3.409174 49.511410 0.999213 0.039643 0.001016 
28.648573 -0.199997 47.878517 0.999999 0.000979 0.000979 
28.739937 4.289977 54.433167 0.998734 -0.050296 0.001026 
71.700607 73.014816 57.531200 0.487672 -0.873026 0.001329 
111.886368 83.745323 57.577850 0.006883 -0.999976 0.000983 
115.394775 83.686005 54.048103 -0.037461 -0.999298 0.001012 
116.334679 83.651794 53.925854 -0.048051 -0.998844 0.001022 
126.181198 82.586983 50.018066 -0.165311 -0.986241 0.001125 
195.929672 5.171560 52.791531 -0.998128 -0.061152 0.001036 
195.933640 -4.758800 54.698467 -0.998386 0.056785 0.001032 
170.613571 -60.100136 57.503624 -0.694569 0.719425 0.001381 
122.813240 83.092751 52.056412 -0.125512 -0.992091 0.001091 
26.037680 6.012879 47.500000 0.000978 0.000978 0.999999 
26.664680 10.337521 47.500000 0.000978 0.000978 0.999999 
31.259020 23.152502 47.500000 0.000978 0.000978 0.999999 
29.397779 24.463770 47.500000 0.000978 0.000978 0.999999 
35.124043 38.134735 47.500000 0.000978 0.000978 0.999999 
39.817490 45.388584 47.500000 0.000978 0.000978 0.999999 
41.526829 50.142574 47.500000 0.000978 0.000978 0.999999 
45.985794 55.376820 47.500000 0.000978 0.000978 0.999999 
52.803650 62.085464 47.500000 0.000978 0.000978 0.999999 
57.698780 67.443649 47.500000 0.000978 0.000978 0.999999 
69.189079 73.909195 47.500000 0.000978 0.000978 0.999999 
73.627823 74.665070 47.500000 0.000978 0.000978 0.999999 
93.564583 82.019073 47.500000 0.000978 0.000978 0.999999 
106.109131 86.662949 47.500000 0.000978 0.000978 0.999999 
108.263565 83.685478 47.500000 0.000978 0.000978 0.999999 
99.112930 83.032661 57.500000 0.000978 0.000978 -0.999999 
96.052269 83.091583 57.500000 0.000978 0.000978 -0.999999 
71.819572 74.594032 57.500000 0.000978 0.000978 -0.999999 
64.272285 69.128120 57.500000 0.000978 0.000978 -0.999999 
58.446014 65.587097 57.500000 0.000978 0.000978 -0.999999 
57.651257 66.290482 57.500000 0.000978 0.000978 -0.999999 
47.497173 56.413658 57.500000 0.000978 0.000978 -0.999999 
37.693638 37.469414 57.500000 0.000978 0.000978 -0.999999 
29.455938 25.537083 57.500000 0.000978 0.000978 -0.999999 
30.391495 18.565994 57.500000 0.000978 0.000978 -0.999999 
28.793528 13.104235 57.500000 0.000978 0.000978 -0.999999 
29.261940 -20.337954 57.500000 0.000978 0.000978 -0.999999 
30.778196 -28.455553 57.500000 0.000978 0.000978 -0.999999 
37.315041 -41.763153 57.500000 0.000978 0.000978 -0.999999 
42.693916 -47.996674 57.500000 0.000978 0.000978 -0.999999 
46.068623 -53.313828 57.500000 0.000978 0.000978 -0.999999 
50.029266 -60.404678 57.500000 0.000978 0.000978 -0.999999 
55.090923 -63.930817 57.500000 0.000978 0.000978 -0.999999 
63.064304 -71.180290 57.500000 0.000978 0.000978 -0.999999 
76.157089 -77.886063 57.500000 0.000978 0.000978 -0.999999 
86.471519 -82.738922 57.500000 0.000978 0.000978 -0.999999 
198.066589 -7.691068 47.914322 -0.070122 -0.805692 0.588169 
127.077805 -83.387344 55.878643 0.984919 0.173011 0.001131 
142.243088 78.703880 57.500000 0.000978 0.000978 -0.999999 
155.646759 72.062714 57.500000 0.000978 0.000978 -0.999999 
163.822510 66.698257 57.500000 0.000978 0.000978 -0.999999 
168.583221 66.639511 57.500000 0.000978 0.000978 -0.999999 
182.983154 47.383808 57.500000 0.000978 0.000978 -0.999999 
192.450668 32.600754 57.500000 0.000978 0.000978 -0.999999 
194.911606 15.856455 57.500000 0.000978 0.000978 -0.999999 
196.620743 23.281952 61.777653 0.963981 0.265967 0.001203 
196.673019 23.037502 57.976803 0.964763 0.263117 0.001201 
194.369751 30.285843 59.345139 0.938428 0.345472 0.001256 
192.580826 34.829884 59.178600 0.917539 0.397643 0.001287 
186.210968 46.849804 60.663830 0.844879 0.534955 0.001347 
186.320648 46.681545 60.117683 0.846097 0.533028 0.001349 
180.016937 55.290890 60.568768 0.775059 0.631887 0.001377 
172.080704 63.685925 61.651405 0.683251 0.730182 0.001380 
165.205490 69.630753 59.032375 0.603278 0.797530 0.001368 
165.581131 69.371254 61.160503 0.607653 0.794201 0.001372 
154.016907 76.890076 59.115822 0.475046 0.879960 0.001323 
150.605225 78.513847 60.963596 0.438294 0.898831 0.001308 
151.341309 78.287979 57.680119 0.444588 0.895734 0.001311 
142.201263 82.204956 59.896496 0.341642 0.939829 0.001251 
132.745224 85.033577 61.163757 0.232258 0.972654 0.001179 
126.036934 86.254204 60.746967 0.157685 0.987489 0.001118 
121.641861 86.957016 56.370377 0.106419 0.994321 0.001075 
126.409660 86.342690 48.604736 0.160219 0.987081 0.001120 
131.540375 85.204803 45.015606 0.220763 0.975327 0.001168 
138.380219 83.404182 46.360821 0.297786 0.954632 0.001225 
140.759659 82.757729 43.189098 0.324419 0.945912 0.001243 
150.694901 78.553444 46.009880 0.437266 0.899331 0.001305 
158.917282 73.849670 46.019238 0.531813 0.846861 0.001346 
180.393616 54.955917 43.357418 0.777500 0.628881 0.001376 
185.027863 48.370464 46.409164 0.831841 0.555013 0.001357 
185.927765 47.051880 45.781719 0.842099 0.539322 0.001352 
194.510239 29.655506 47.012627 0.940631 0.339429 0.001253 
195.403870 26.894794 43.546535 0.951115 0.308835 0.001230 
197.937134 17.419008 46.338478 0.979863 0.199666 0.001154 
199.030914 11.052743 46.296139 0.991782 0.127937 0.001093 
199.572250 6.919730 52.958858 0.996878 0.078950 0.001053 
199.848785 0.024138 61.704918 0.999999 0.000978 0.000978 
199.606171 6.024665 57.583580 0.997558 0.069839 0.001042 
199.527878 4.596353 62.293755 0.998623 0.052451 0.001028 
199.021332 -11.597836 61.455868 0.991141 -0.132811 0.001098 
197.003204 -21.594702 61.047337 0.969226 -0.246171 0.001189 
198.077759 -17.035225 59.214653 0.980932 -0.194346 0.001150 
196.202820 -24.906841 60.847012 0.958392 -0.285453 0.001215 
193.074661 -33.205231 62.394180 0.924466 -0.381263 0.001275 
193.249115 -33.338570 57.848507 0.924466 -0.381263 0.001275 
187.346298 -44.817196 60.705910 0.857729 -0.514100 0.001342 
182.728867 -51.792755 58.181679 0.805708 -0.592312 0.001368 
179.196030 -56.350266 59.684933 0.763803 -0.645448 0.001376 
155.084457 -76.338608 61.366089 0.487672 -0.873026 0.001329 
154.389893 -76.669388 62.032349 0.479317 -0.877641 0.001328 
142.890549 -81.917679 59.113594 0.348502 -0.937307 0.001258 
140.032639 -82.839409 61.402157 0.317711 -0.948187 0.001236 
118.746880 -87.238297 62.489796 0.072214 -0.997389 0.001047 
124.486626 -86.588242 52.798786 0.138020 -0.990429 0.001104 
124.193558 -86.630241 52.132748 0.135260 -0.990809 0.001100 
127.814857 -86.110672 43.763912 0.178186 -0.983996 0.001135 
128.172562 -86.061790 46.772732 0.180786 -0.983522 0.001137 
137.327438 -83.681335 47.321686 0.286119 -0.958193 0.001218 
135.402878 -84.187981 44.824501 0.265352 -0.964151 0.001201 
114.443924 -87.333946 61.189152 0.023017 -0.999735 0.001001 
89.932785 -84.488380 60.081974 -0.256844 -0.966452 0.001195 
86.627357 -83.490387 60.191578 -0.294171 -0.955752 0.001221 
74.054405 -78.577240 59.070438 -0.438294 -0.898831 0.001308 
65.780884 -73.949867 61.076687 -0.533028 -0.846097 0.001349 
51.205021 -62.467968 59.055977 -0.700167 -0.713977 0.001381 
45.021534 -55.736347 59.551483 -0.771254 -0.636526 0.001375 
32.989803 -36.682541 62.335880 -0.907768 -0.419470 0.001299 
29.395294 -27.113760 58.178272 -0.950879 -0.309560 0.001233 
27.873276 -22.192654 61.532810 -0.967197 -0.254023 0.001193 
25.844975 -12.376592 60.452560 -0.989771 -0.142660 0.001106 
25.588850 -9.863973 62.481983 -0.993536 -0.113516 0.001081 
25.042744 -4.336356 49.312565 -0.998739 -0.050193 0.001024 
25.205540 -7.317691 44.688858 -0.996509 -0.083483 0.001057 
26.169098 -13.666411 46.158520 -0.987489 -0.157685 0.001118 
30.247261 -29.828480 42.651768 -0.939829 -0.341642 0.001251 
35.192001 -40.878372 42.913750 -0.883337 -0.468736 0.001320 
36.654442 -43.839191 45.682693 -0.865851 -0.500299 0.001334 
38.155235 -46.076099 45.695148 -0.850035 -0.526725 0.001347 
42.871075 -52.944523 46.912189 -0.796531 -0.604596 0.001371 
47.605309 -58.511395 44.944687 -0.742124 -0.670261 0.001382 
51.354023 -62.568726 43.380081 -0.697373 -0.716707 0.001381 
61.568512 -71.103569 47.292683 -0.583045 -0.812439 0.001365 
63.425159 -72.480766 47.355301 -0.561268 -0.827633 0.001359 
78.917648 -80.606232 46.773033 -0.382163 -0.924094 0.001278 
98.385727 -86.366547 44.902767 -0.160219 -0.987081 0.001120 
114.676605 -87.431908 44.349442 0.027071 -0.999633 0.001003 
114.759964 -87.424561 55.488037 0.027126 -0.999632 0.001005 
115.936569 -87.379730 59.321869 0.041673 -0.999131 0.001016 
26.438417 15.642714 57.888660 -0.983924 0.178585 0.001137 
26.228348 14.904855 62.171047 -0.985368 0.170436 0.001129 
30.527704 30.722992 59.310120 -0.936483 0.350710 0.001257 
39.594929 48.415974 62.155956 -0.831841 0.555013 0.001357 
38.947487 47.210613 58.105885 -0.840871 0.541234 0.001350 
43.757591 54.078220 60.260933 -0.784741 0.619822 0.001374 
46.721176 57.701778 60.524216 -0.749918 0.661530 0.001381 
52.884087 63.978149 60.223946 -0.680398 0.732842 0.001380 
61.632881 71.131226 60.643780 -0.579946 0.814654 0.001365 
70.140373 76.481972 59.074028 -0.482479 0.875906 0.001329 
76.759216 79.783783 60.444172 -0.406977 0.913437 0.001292 
78.503357 80.471886 58.510136 -0.388343 0.921514 0.001282 
87.282043 83.720108 59.376644 -0.286119 0.958193 0.001218 
105.031082 87.114952 62.138275 -0.083483 0.996509 0.001057 
111.268295 87.375015 60.126217 -0.012857 0.999917 0.000989 
113.200607 87.450760 58.187752 0.008884 0.999960 0.000987 
113.807785 87.445930 56.513683 0.016913 0.999856 0.000995 
113.116669 87.479813 50.383656 0.008884 0.999960 0.000987 
113.719872 87.444939 42.737068 0.014894 0.999889 0.000993 
112.113976 87.499390 47.565742 -0.002938 0.999995 0.000979 
110.018288 87.377808 42.982151 -0.027071 0.999633 0.001003 
110.824409 87.447037 47.294331 -0.016913 0.999856 0.000995 
90.408966 84.468681 43.420712 -0.251210 0.967932 0.001191 
93.032646 85.094734 46.316727 -0.221267 0.975213 0.001171 
84.785172 82.961105 43.752037 -0.315485 0.948930 0.001237 
78.891235 80.581985 46.780987 -0.384343 0.923189 0.001277 
67.985611 75.129524 43.449669 -0.507781 0.861485 0.001340 
66.878708 74.472694 46.288548 -0.520416 0.853912 0.001345 
61.754807 71.290627 43.552788 -0.578659 0.815569 0.001362 
56.731956 67.230469 45.635788 -0.636526 0.771254 0.001375 
50.536358 61.674595 42.893093 -0.707106 0.707106 0.001384 
49.920074 61.022419 47.227455 -0.715359 0.698755 0.001384 
39.370247 47.834892 44.121891 -0.835989 0.548745 0.001355 
32.793289 35.866306 45.000946 -0.912042 0.410095 0.001294 
28.791277 25.068754 42.626125 -0.958193 0.286119 0.001218 
28.708244 24.872890 44.901611 -0.959055 0.283219 0.001216 
26.666969 17.190134 47.051956 -0.980402 0.197002 0.001152 
25.039930 2.997680 46.145218 -0.999443 0.033348 0.001011 
25.057413 -1.147717 48.111023 -0.999917 -0.012883 0.000991 
25.004105 0.678430 53.836899 -0.999976 0.006896 0.000985 
25.041649 -1.391721 50.196495 -0.999857 -0.016879 0.000993 
199.609558 -6.174520 47.539413 0.997400 -0.072063 0.001044 
199.830338 -1.285284 51.717834 0.999889 -0.014865 0.000991 
199.823608 -1.521965 55.367260 0.999856 -0.016913 0.000995 
198.336334 -15.095442 45.612198 0.984851 -0.173397 0.001133 
197.470520 -20.134882 45.185444 0.972780 -0.231726 0.001176 
193.640015 -32.343922 46.637009 0.929088 -0.369856 0.001271 
190.907227 -38.078484 45.480000 0.899331 -0.437266 0.001305 
188.421310 -43.147434 46.719280 0.869469 -0.493986 0.001331 
187.415115 -44.872490 43.823055 0.858436 -0.512919 0.001339 
181.733032 -53.198296 42.930820 0.792878 -0.609379 0.001369 
174.265472 -61.643616 47.442547 0.707106 -0.707106 0.001384 
173.508118 -62.470116 45.061680 0.698755 -0.715359 0.001384 
168.664642 -66.710503 46.083210 0.643838 -0.765161 0.001379 
152.397659 -77.786339 42.849400 0.456129 -0.889912 0.001314 
147.096313 -80.076256 46.011547 0.397643 -0.917539 0.001287 
121.225540 87.032654 51.337814 0.101730 0.994811 0.001071 
119.545410 87.164261 44.646069 0.083307 0.996523 0.001055 
118.967506 -87.219963 48.871628 0.074451 -0.997224 0.001049 
199.523285 7.643762 41.692970 -0.084637 0.977624 -0.192581 
190.958054 25.263523 42.500000 0.000978 0.000978 -0.999999 
184.914536 41.422337 42.500000 0.000978 0.000978 -0.999999 
185.174469 44.995140 42.500000 0.000978 0.000978 -0.999999 
171.187027 59.487057 42.500000 0.000978 0.000978 -0.999999 
166.311981 67.805344 42.500000 0.000978 0.000978 -0.999999 
158.269302 70.021255 42.500000 0.000978 0.000978 -0.999999 
158.092758 69.354675 42.500000 0.000978 0.000978 -0.999999 
143.099014 81.066483 42.500000 0.000978 0.000978 -0.999999 
138.929016 79.300926 42.500000 0.000978 0.000978 -0.999999 
191.295929 3.802529 37.784492 -0.319188 -0.016272 0.947552 
189.833618 5.308291 37.519451 -0.033348 -0.003032 0.999439 
191.571503 -2.029460 37.863708 -0.360149 0.011454 0.932824 
194.741409 0.739321 41.592842 -0.982776 -0.008027 0.184629 
169.250290 4.975999 34.811691 -0.087863 0.996132 0.001059 
180.244965 5.937908 34.213799 -0.087863 0.996132 0.001059 
155.664917 3.787432 35.489525 -0.087863 0.996132 0.001059 
148.756104 3.182989 34.190281 -0.087863 0.996132 0.001059 
102.387939 82.525879 42.500000 0.000978 0.000978 -0.999999 
97.535004 82.766220 42.500000 0.000978 0.000978 -0.999999 
87.093033 81.925117 42.500000 0.000978 0.000978 -0.999999 
85.812706 82.768639 42.500000 0.000978 0.000978 -0.999999 
77.495636 76.879898 42.500000 0.000978 0.000978 -0.999999 
67.327499 74.598892 42.500000 0.000978 0.000978 -0.999999 
67.724350 72.398071 42.500000 0.000978 0.000978 -0.999999 
62.234966 65.308205 42.500000 0.000978 0.000978 -0.999999 
44.223034 53.584454 42.500000 0.000978 0.000978 -0.999999 
34.808792 36.828850 42.500000 0.000978 0.000978 -0.999999 
35.660065 34.772652 42.500000 0.000978 0.000978 -0.999999 
29.072067 25.709148 42.500000 0.000978 0.000978 -0.999999 
25.958250 8.415785 42.500000 0.000978 0.000978 -0.999999 
29.447912 9.710091 42.500000 0.000978 0.000978 -0.999999 
29.373856 -0.687450 42.500000 0.000978 0.000978 -0.999999 
29.277407 -4.620367 42.500000 0.000978 0.000978 -0.999999 
30.507792 -15.504572 42.500000 0.000978 0.000978 -0.999999 
31.903362 -24.334978 42.500000 0.000978 0.000978 -0.999999 
32.665817 -30.991898 42.500000 0.000978 0.000978 -0.999999 
38.724636 -37.913456 42.500000 0.000978 0.000978 -0.999999 
41.262726 -50.189865 42.500000 0.000978 0.000978 -0.999999 
50.881325 -55.565983 42.500000 0.000978 0.000978 -0.999999 
57.329006 -65.265419 42.500000 0.000978 0.000978 -0.999999 
62.198338 -67.271416 42.500000 0.000978 0.000978 -0.999999 
63.686707 -71.087975 42.500000 0.000978 0.000978 -0.999999 
70.536842 -74.404510 42.500000 0.000978 0.000978 -0.999999 
78.276398 -77.797623 42.500000 0.000978 0.000978 -0.999999 
83.679573 -79.077148 42.500000 0.000978 0.000978 -0.999999 
98.453377 -82.645645 42.500000 0.000978 0.000978 -0.999999 
103.186325 -83.642632 42.500000 0.000978 0.000978 -0.999999 
106.912407 -84.221474 42.500000 0.000978 0.000978 -0.999999 
112.374367 40.294857 34.142334 -0.999999 0.000978 0.000978 
112.374367 63.860821 33.905743 -0.999999 0.000978 0.000978 
112.374367 61.221992 36.442745 -0.999999 0.000978 0.000978 
112.374367 59.630741 37.274803 -0.999999 0.000978 0.000978 
115.250160 80.363747 38.515278 -0.018018 -0.600124 0.799704 
125.319824 77.723633 37.696259 -0.043430 -0.261819 0.964139 
125.075073 80.022400 39.039616 -0.114111 -0.709859 0.695039 
27.362038 -6.697634 56.910877 0.001295 -0.910632 -0.413217 
27.140535 -6.753655 57.014805 0.001344 -0.855828 -0.517259 
25.837605 -6.606390 53.424412 0.000978 -0.999999 0.000978 
115.867905 -87.156151 40.736317 0.041022 -0.983359 -0.176981 
117.238747 -85.908035 37.467583 0.048301 -0.862520 -0.503712 
117.618774 -82.548485 34.046478 0.031610 -0.529116 -0.847960 
114.394089 -80.097977 32.892963 0.008478 -0.270069 -0.962804 
120.442612 -84.394646 35.725967 0.070779 -0.729462 -0.680350 
127.216797 -85.004509 37.899479 0.152513 -0.872954 -0.463348 
124.820908 -70.587837 36.529064 0.984919 0.173011 0.001131 
122.053909 -54.895416 33.613010 0.984919 0.173011 0.001131 
120.172371 -44.224701 35.952991 0.984919 0.173011 0.001131 
123.821495 -64.919891 36.230450 0.984919 0.173011 0.001131 
125.622864 -75.174835 32.500000 0.000978 0.000978 -0.999999 
123.368454 -64.538322 32.500000 0.000978 0.000978 -0.999999 
113.252678 -39.158279 32.500000 0.000978 0.000978 -0.999999 
117.828300 -60.592880 32.500000 0.000978 0.000978 -0.999999 
121.681557 -76.189682 32.500000 0.000978 0.000978 -0.999999 
118.362976 -69.046494 32.500000 0.000978 0.000978 -0.999999 
116.767075 -62.326687 32.500000 0.000978 0.000978 -0.999999 
113.311577 -58.899460 32.500000 0.000978 0.000978 -0.999999 
113.084290 -56.203289 32.500000 0.000978 0.000978 -0.999999 
113.470238 -35.407257 32.500000 0.000978 0.000978 -0.999999 
116.292336 -34.451374 32.500000 0.000978 0.000978 -0.999999 
112.170067 -34.417370 32.500000 0.000978 0.000978 -0.999999 
119.118675 -22.796715 32.500000 0.000978 0.000978 -0.999999 
108.930420 -23.428839 32.500000 0.000978 0.000978 -0.999999 
112.019180 -18.337675 32.500000 0.000978 0.000978 -0.999999 
102.651031 -11.796717 32.500000 0.000978 0.000978 -0.999999 
97.365456 -11.564631 32.500000 0.000978 0.000978 -0.999999 
78.211243 -7.731088 32.500000 0.000978 0.000978 -0.999999 
116.464264 -16.366940 32.500000 0.000978 0.000978 -0.999999 
119.940277 -17.716614 32.500000 0.000978 0.000978 -0.999999 
124.132011 -11.318427 32.500000 0.000978 0.000978 -0.999999 
129.988174 2.177914 32.500000 0.000978 0.000978 -0.999999 
127.902336 1.325391 32.500000 0.000978 0.000978 -0.999999 
125.898979 5.647985 32.500000 0.000978 0.000978 -0.999999 
125.288940 9.900941 32.500000 0.000978 0.000978 -0.999999 
111.934128 17.837240 32.500000 0.000978 0.000978 -0.999999 
108.187958 17.601074 32.500000 0.000978 0.000978 -0.999999 
105.565399 17.980549 32.500000 0.000978 0.000978 -0.999999 
103.032822 12.413075 32.500000 0.000978 0.000978 -0.999999 
84.958374 9.839659 32.500000 0.000978 0.000978 -0.999999 
117.051331 22.111040 32.500000 0.000978 0.000978 -0.999999 
117.987450 24.776686 32.500000 0.000978 0.000978 -0.999999 
111.798729 31.765865 32.500000 0.000978 0.000978 -0.999999 
113.542473 37.773144 32.500000 0.000978 0.000978 -0.999999 
119.788338 52.082020 32.500000 0.000978 0.000978 -0.999999 
120.340515 54.343727 32.500000 0.000978 0.000978 -0.999999 
115.972939 44.984978 32.500000 0.000978 0.000978 -0.999999 
121.650253 73.597656 32.500000 0.000978 0.000978 -0.999999 
114.852402 49.128910 32.500000 0.000978 0.000978 -0.999999 
120.288994 73.098869 32.500000 0.000978 0.000978 -0.999999 
118.356346 64.562141 32.500000 0.000978 0.000978 -0.999999 
112.843033 61.237579 32.500000 0.000978 0.000978 -0.999999 
115.408989 66.380943 32.500000 0.000978 0.000978 -0.999999 
135.802429 -4.019409 32.500000 0.000978 0.000978 -0.999999 
139.695755 2.917695 32.500000 0.000978 0.000978 -0.999999 
141.448639 1.241706 32.500000 0.000978 0.000978 -0.999999 
146.310104 3.080560 32.500000 0.000978 0.000978 -0.999999 
151.559875 0.016538 32.500000 0.000978 0.000978 -0.999999 
164.929062 0.226015 32.500000 0.000978 0.000978 -0.999999 
159.783783 -2.423366 32.500000 0.000978 0.000978 -0.999999 
179.523605 0.950597 32.500000 0.000978 0.000978 -0.999999 
167.360809 2.074522 32.500000 0.000978 0.000978 -0.999999 
176.299606 0.000650 32.500000 0.000978 0.000978 -0.999999 
177.614044 0.676615 32.500000 0.000978 0.000978 -0.999999 
192.488190 3.142228 32.500000 0.000978 0.000978 -0.999999 
182.163193 5.371031 32.500000 0.000978 0.000978 -0.999999 
176.871201 3.230337 32.500000 0.000978 0.000978 -0.999999 
178.384521 -5.330172 32.500000 0.000978 0.000978 -0.999999 
175.010620 -4.565305 32.500000 0.000978 0.000978 -0.999999 
192.192886 -5.120055 32.500000 0.000978 0.000978 -0.999999 
112.394783 78.871315 32.668980 0.001104 0.138020 -0.990429 
113.869591 79.894234 32.807629 0.005960 0.246736 -0.969064 
119.270302 82.162888 33.823143 0.039765 0.495008 -0.867978 
120.747070 82.975494 34.549335 0.061156 0.595915 -0.800716 
122.166382 86.188995 39.016857 0.106983 0.930342 -0.350740 
122.724487 86.719803 41.435833 0.119696 0.987192 -0.105474 
116.039856 86.347290 38.254436 0.036054 0.904019 -0.425970 
117.398743 87.108093 40.898075 0.057544 0.985294 -0.160888 
125.540260 74.667511 36.212830 0.984919 -0.173011 0.001131 
124.924438 71.175011 32.640621 0.984919 -0.173011 0.001131 
120.890160 48.295456 35.995689 0.984919 -0.173011 0.001131 
121.331894 50.800674 36.761124 0.984919 -0.173011 0.001131 
127.401680 85.224098 40.247639 0.984919 -0.173011 0.001131 
127.482719 83.754074 42.241703 0.656387 -0.117053 -0.745288 
116.311081 -79.159988 37.877995 -0.014106 0.368035 0.929705 
117.677444 -81.423553 39.753944 -0.054739 0.832311 0.551599 
113.216927 39.982670 37.500000 0.000978 0.000978 0.999999 
117.030464 48.142311 37.500000 0.000978 0.000978 0.999999 
121.065147 58.073536 37.500000 0.000978 0.000978 0.999999 
121.949150 74.592133 37.500000 0.000978 0.000978 0.999999 
117.155800 58.472816 37.500000 0.000978 0.000978 0.999999 
116.510910 71.021576 37.500000 0.000978 0.000978 0.999999 
