ply
format ascii 1.0
comment Created by CloudCompare v2.12.0 (Kyiv)
comment Created 2023-02-04T19:22:51
obj_info Generated by CloudCompare!
element vertex 799
property float x
property float y
property float z
property float nx
property float ny
property float nz
end_header
115.516449 -66.152130 32.500000 0.000978 0.000978 -0.999999 
116.704796 -77.197716 32.500000 0.000978 0.000978 -0.999999 
115.139816 -71.005226 32.500000 0.000978 0.000978 -0.999999 
112.387497 -50.256569 32.500000 0.000978 0.000978 -0.999999 
112.903473 -77.132828 32.500000 0.000978 0.000978 -0.999999 
112.689415 -35.497227 32.500000 0.000978 0.000978 -0.999999 
113.664062 -36.327354 32.500000 0.000978 0.000978 -0.999999 
112.737465 -37.191925 32.500000 0.000978 0.000978 -0.999999 
115.998695 -36.592918 32.500000 0.000978 0.000978 -0.999999 
116.967140 -33.776588 32.500000 0.000978 0.000978 -0.999999 
118.042686 -32.168285 32.500000 0.000978 0.000978 -0.999999 
114.317955 -33.784737 32.500000 0.000978 0.000978 -0.999999 
115.490837 -31.792646 32.500000 0.000978 0.000978 -0.999999 
116.637627 -30.474133 32.500000 0.000978 0.000978 -0.999999 
116.030411 -29.458055 32.500000 0.000978 0.000978 -0.999999 
111.873405 -32.052979 32.500000 0.000978 0.000978 -0.999999 
111.970657 -34.300034 32.500000 0.000978 0.000978 -0.999999 
113.133347 -31.069366 32.500000 0.000978 0.000978 -0.999999 
110.541664 -28.197941 32.500000 0.000978 0.000978 -0.999999 
110.478600 -28.958628 32.500000 0.000978 0.000978 -0.999999 
110.339508 -27.178331 32.500000 0.000978 0.000978 -0.999999 
110.451584 -28.209679 32.500000 0.000978 0.000978 -0.999999 
115.549965 -25.959785 32.500000 0.000978 0.000978 -0.999999 
115.757881 -23.348827 32.500000 0.000978 0.000978 -0.999999 
118.553467 -21.825068 32.500000 0.000978 0.000978 -0.999999 
118.418015 -21.815868 32.500000 0.000978 0.000978 -0.999999 
115.455559 -27.354893 32.500000 0.000978 0.000978 -0.999999 
117.915222 -27.348494 32.500000 0.000978 0.000978 -0.999999 
118.368538 -22.414400 32.500000 0.000978 0.000978 -0.999999 
115.383507 -25.673664 32.500000 0.000978 0.000978 -0.999999 
110.239532 -25.707685 32.500000 0.000978 0.000978 -0.999999 
114.368996 -22.766851 32.500000 0.000978 0.000978 -0.999999 
108.215485 -22.762459 32.500000 0.000978 0.000978 -0.999999 
111.227608 -23.809395 32.500000 0.000978 0.000978 -0.999999 
108.597427 -22.343311 32.500000 0.000978 0.000978 -0.999999 
111.216324 -22.748484 32.500000 0.000978 0.000978 -0.999999 
112.984291 -15.733128 32.500000 0.000978 0.000978 -0.999999 
111.270500 -20.561211 32.500000 0.000978 0.000978 -0.999999 
114.939148 -20.044621 32.500000 0.000978 0.000978 -0.999999 
113.042618 -17.897310 32.500000 0.000978 0.000978 -0.999999 
112.662689 -21.809853 32.500000 0.000978 0.000978 -0.999999 
112.085289 -21.429319 32.500000 0.000978 0.000978 -0.999999 
112.642067 -14.792825 32.500000 0.000978 0.000978 -0.999999 
115.418671 -17.068148 32.500000 0.000978 0.000978 -0.999999 
110.424698 -18.813055 32.500000 0.000978 0.000978 -0.999999 
114.938530 -18.481966 32.500000 0.000978 0.000978 -0.999999 
109.388428 -20.182102 32.500000 0.000978 0.000978 -0.999999 
112.917305 -19.351116 32.500000 0.000978 0.000978 -0.999999 
111.055489 -15.806149 32.500000 0.000978 0.000978 -0.999999 
109.552887 -16.371855 32.500000 0.000978 0.000978 -0.999999 
109.629173 -17.100483 32.500000 0.000978 0.000978 -0.999999 
107.369682 -21.108999 32.500000 0.000978 0.000978 -0.999999 
108.145454 -14.643697 32.500000 0.000978 0.000978 -0.999999 
106.536942 -18.424736 32.500000 0.000978 0.000978 -0.999999 
106.161804 -20.075781 32.500000 0.000978 0.000978 -0.999999 
105.673912 -20.817993 32.500000 0.000978 0.000978 -0.999999 
105.541351 -13.776070 32.500000 0.000978 0.000978 -0.999999 
105.748062 -12.324311 32.500000 0.000978 0.000978 -0.999999 
107.322189 -13.733655 32.500000 0.000978 0.000978 -0.999999 
102.236511 -15.423899 32.500000 0.000978 0.000978 -0.999999 
103.796783 -15.915006 32.500000 0.000978 0.000978 -0.999999 
101.782578 -15.816565 32.500000 0.000978 0.000978 -0.999999 
101.973335 -12.135720 32.500000 0.000978 0.000978 -0.999999 
100.164810 -13.622066 32.500000 0.000978 0.000978 -0.999999 
99.647682 -12.740998 32.500000 0.000978 0.000978 -0.999999 
102.804985 -14.359713 32.500000 0.000978 0.000978 -0.999999 
99.467216 -14.117720 32.500000 0.000978 0.000978 -0.999999 
98.410194 -13.356447 32.500000 0.000978 0.000978 -0.999999 
96.893211 -11.583913 32.500000 0.000978 0.000978 -0.999999 
95.681465 -11.521904 32.500000 0.000978 0.000978 -0.999999 
94.927872 -12.532588 32.500000 0.000978 0.000978 -0.999999 
92.898941 -12.168161 32.500000 0.000978 0.000978 -0.999999 
93.403366 -10.878742 32.500000 0.000978 0.000978 -0.999999 
90.864960 -11.359748 32.500000 0.000978 0.000978 -0.999999 
90.055878 -10.198602 32.500000 0.000978 0.000978 -0.999999 
90.025505 -9.634287 32.500000 0.000978 0.000978 -0.999999 
87.546791 -9.384626 32.500000 0.000978 0.000978 -0.999999 
97.781685 -10.503945 32.500000 0.000978 0.000978 -0.999999 
87.928680 -10.830540 32.500000 0.000978 0.000978 -0.999999 
86.207413 -10.180294 32.500000 0.000978 0.000978 -0.999999 
78.925751 -8.663956 32.500000 0.000978 0.000978 -0.999999 
82.948479 -7.912218 32.500000 0.000978 0.000978 -0.999999 
82.016479 -9.413660 32.500000 0.000978 0.000978 -0.999999 
81.364578 -8.359451 32.500000 0.000978 0.000978 -0.999999 
83.569466 -8.730038 32.500000 0.000978 0.000978 -0.999999 
74.447014 -7.827433 32.500000 0.000978 0.000978 -0.999999 
74.721420 -6.576441 32.500000 0.000978 0.000978 -0.999999 
75.711639 -8.100612 32.500000 0.000978 0.000978 -0.999999 
72.046265 -7.764602 32.500000 0.000978 0.000978 -0.999999 
74.483040 -9.009476 32.500000 0.000978 0.000978 -0.999999 
78.465691 -7.443971 32.500000 0.000978 0.000978 -0.999999 
72.481445 -8.676984 32.500000 0.000978 0.000978 -0.999999 
69.057922 -6.896208 32.500000 0.000978 0.000978 -0.999999 
68.292030 -6.432165 32.500000 0.000978 0.000978 -0.999999 
69.638329 -8.668415 32.500000 0.000978 0.000978 -0.999999 
113.892349 -14.274217 32.500000 0.000978 0.000978 -0.999999 
114.396545 -15.798871 32.500000 0.000978 0.000978 -0.999999 
115.386429 -15.684479 32.500000 0.000978 0.000978 -0.999999 
117.347008 -17.461346 32.500000 0.000978 0.000978 -0.999999 
117.998062 -16.587276 32.500000 0.000978 0.000978 -0.999999 
119.528793 -17.115166 32.500000 0.000978 0.000978 -0.999999 
116.731262 -14.544793 32.500000 0.000978 0.000978 -0.999999 
122.457809 -14.718868 32.500000 0.000978 0.000978 -0.999999 
120.665665 -16.417267 32.500000 0.000978 0.000978 -0.999999 
121.045540 -17.065498 32.500000 0.000978 0.000978 -0.999999 
120.605400 -15.230793 32.500000 0.000978 0.000978 -0.999999 
120.606903 -12.321983 32.500000 0.000978 0.000978 -0.999999 
121.927094 -11.299107 32.500000 0.000978 0.000978 -0.999999 
125.865929 -10.837398 32.500000 0.000978 0.000978 -0.999999 
123.429016 -14.165640 32.500000 0.000978 0.000978 -0.999999 
123.901100 -13.114096 32.500000 0.000978 0.000978 -0.999999 
125.545433 -11.670713 32.500000 0.000978 0.000978 -0.999999 
124.235947 -8.766912 32.500000 0.000978 0.000978 -0.999999 
124.210777 -8.945252 32.500000 0.000978 0.000978 -0.999999 
126.690140 -7.358872 32.500000 0.000978 0.000978 -0.999999 
126.039062 -6.037452 32.500000 0.000978 0.000978 -0.999999 
132.600540 -5.818236 32.500000 0.000978 0.000978 -0.999999 
132.258087 -5.967046 32.500000 0.000978 0.000978 -0.999999 
127.755638 -7.081759 32.500000 0.000978 0.000978 -0.999999 
131.925461 -5.299202 32.500000 0.000978 0.000978 -0.999999 
131.308044 -5.189795 32.500000 0.000978 0.000978 -0.999999 
129.739502 -5.282944 32.500000 0.000978 0.000978 -0.999999 
130.117599 -2.762838 32.500000 0.000978 0.000978 -0.999999 
127.462189 -2.947722 32.500000 0.000978 0.000978 -0.999999 
126.781296 -0.649662 32.500000 0.000978 0.000978 -0.999999 
129.266129 1.778755 32.500000 0.000978 0.000978 -0.999999 
127.933411 -0.363670 32.500000 0.000978 0.000978 -0.999999 
132.483536 -3.424433 32.500000 0.000978 0.000978 -0.999999 
132.669098 -0.910197 32.500000 0.000978 0.000978 -0.999999 
130.175049 -1.211012 32.500000 0.000978 0.000978 -0.999999 
132.662781 -2.996888 32.500000 0.000978 0.000978 -0.999999 
133.493622 -0.279755 32.500000 0.000978 0.000978 -0.999999 
128.355133 0.056355 32.500000 0.000978 0.000978 -0.999999 
132.608093 1.856451 32.500000 0.000978 0.000978 -0.999999 
130.029343 -1.032392 32.500000 0.000978 0.000978 -0.999999 
128.941269 3.509271 32.500000 0.000978 0.000978 -0.999999 
130.789581 3.308608 32.500000 0.000978 0.000978 -0.999999 
128.536392 1.729652 32.500000 0.000978 0.000978 -0.999999 
126.595993 4.497674 32.500000 0.000978 0.000978 -0.999999 
132.122025 6.165668 32.500000 0.000978 0.000978 -0.999999 
132.712158 6.284973 32.500000 0.000978 0.000978 -0.999999 
129.177780 5.733776 32.500000 0.000978 0.000978 -0.999999 
130.864365 4.893145 32.500000 0.000978 0.000978 -0.999999 
125.393044 5.642283 32.500000 0.000978 0.000978 -0.999999 
126.748199 7.124445 32.500000 0.000978 0.000978 -0.999999 
127.586411 9.336163 32.500000 0.000978 0.000978 -0.999999 
125.834839 8.074053 32.500000 0.000978 0.000978 -0.999999 
124.220078 10.991988 32.500000 0.000978 0.000978 -0.999999 
123.401451 10.810891 32.500000 0.000978 0.000978 -0.999999 
124.933685 12.773535 32.500000 0.000978 0.000978 -0.999999 
120.702812 12.888855 32.500000 0.000978 0.000978 -0.999999 
121.197906 10.820116 32.500000 0.000978 0.000978 -0.999999 
121.672401 16.724386 32.500000 0.000978 0.000978 -0.999999 
120.513054 14.374225 32.500000 0.000978 0.000978 -0.999999 
119.896988 18.603559 32.500000 0.000978 0.000978 -0.999999 
118.578339 14.588672 32.500000 0.000978 0.000978 -0.999999 
119.609550 18.227318 32.500000 0.000978 0.000978 -0.999999 
117.735756 16.821953 32.500000 0.000978 0.000978 -0.999999 
119.101852 14.300758 32.500000 0.000978 0.000978 -0.999999 
113.605392 14.946922 32.500000 0.000978 0.000978 -0.999999 
117.091209 17.202143 32.500000 0.000978 0.000978 -0.999999 
115.191238 14.689684 32.500000 0.000978 0.000978 -0.999999 
113.317909 13.926805 32.500000 0.000978 0.000978 -0.999999 
110.075134 19.634865 32.500000 0.000978 0.000978 -0.999999 
110.797989 17.512066 32.500000 0.000978 0.000978 -0.999999 
111.945976 16.466770 32.500000 0.000978 0.000978 -0.999999 
117.104233 20.395857 32.500000 0.000978 0.000978 -0.999999 
115.202629 19.580507 32.500000 0.000978 0.000978 -0.999999 
116.505402 20.904167 32.500000 0.000978 0.000978 -0.999999 
112.372765 15.416754 32.500000 0.000978 0.000978 -0.999999 
109.339890 21.370058 32.500000 0.000978 0.000978 -0.999999 
113.361671 20.037333 32.500000 0.000978 0.000978 -0.999999 
112.516708 20.947279 32.500000 0.000978 0.000978 -0.999999 
114.018448 16.297276 32.500000 0.000978 0.000978 -0.999999 
114.479584 18.432482 32.500000 0.000978 0.000978 -0.999999 
109.220535 14.911653 32.500000 0.000978 0.000978 -0.999999 
109.367775 13.824032 32.500000 0.000978 0.000978 -0.999999 
108.015366 19.582214 32.500000 0.000978 0.000978 -0.999999 
108.414421 19.874990 32.500000 0.000978 0.000978 -0.999999 
107.070869 19.776686 32.500000 0.000978 0.000978 -0.999999 
106.242393 18.445992 32.500000 0.000978 0.000978 -0.999999 
105.160782 20.487896 32.500000 0.000978 0.000978 -0.999999 
107.237755 13.536719 32.500000 0.000978 0.000978 -0.999999 
105.517075 14.692170 32.500000 0.000978 0.000978 -0.999999 
107.132851 14.056149 32.500000 0.000978 0.000978 -0.999999 
103.632874 16.947813 32.500000 0.000978 0.000978 -0.999999 
104.955200 13.311654 32.500000 0.000978 0.000978 -0.999999 
102.109482 17.127943 32.500000 0.000978 0.000978 -0.999999 
100.536072 13.188187 32.500000 0.000978 0.000978 -0.999999 
101.447510 14.720205 32.500000 0.000978 0.000978 -0.999999 
102.207489 14.222498 32.500000 0.000978 0.000978 -0.999999 
100.460571 11.948190 32.500000 0.000978 0.000978 -0.999999 
100.079475 12.557394 32.500000 0.000978 0.000978 -0.999999 
99.167931 13.755898 32.500000 0.000978 0.000978 -0.999999 
99.830208 15.145654 32.500000 0.000978 0.000978 -0.999999 
96.042328 12.217445 32.500000 0.000978 0.000978 -0.999999 
97.325287 11.120547 32.500000 0.000978 0.000978 -0.999999 
94.926041 11.154756 32.500000 0.000978 0.000978 -0.999999 
93.867592 10.398979 32.500000 0.000978 0.000978 -0.999999 
93.733932 10.124012 32.500000 0.000978 0.000978 -0.999999 
90.599228 10.668550 32.500000 0.000978 0.000978 -0.999999 
93.183044 10.098626 32.500000 0.000978 0.000978 -0.999999 
89.598045 9.120497 32.500000 0.000978 0.000978 -0.999999 
87.375275 9.669899 32.500000 0.000978 0.000978 -0.999999 
76.138603 10.064598 32.500000 0.000978 0.000978 -0.999999 
74.555527 10.230228 32.500000 0.000978 0.000978 -0.999999 
77.587387 9.534676 32.500000 0.000978 0.000978 -0.999999 
79.003120 9.610843 32.500000 0.000978 0.000978 -0.999999 
73.042824 6.562204 32.500000 0.000978 0.000978 -0.999999 
74.086990 6.260683 32.500000 0.000978 0.000978 -0.999999 
71.009560 6.459833 32.500000 0.000978 0.000978 -0.999999 
75.501740 8.228865 32.500000 0.000978 0.000978 -0.999999 
72.171913 9.482174 32.500000 0.000978 0.000978 -0.999999 
72.927155 6.190065 32.500000 0.000978 0.000978 -0.999999 
69.096718 5.887360 32.500000 0.000978 0.000978 -0.999999 
74.480377 8.284312 32.500000 0.000978 0.000978 -0.999999 
108.034607 22.724791 32.500000 0.000978 0.000978 -0.999999 
112.076904 24.609253 32.500000 0.000978 0.000978 -0.999999 
114.307968 22.377541 32.500000 0.000978 0.000978 -0.999999 
108.433640 23.145840 32.500000 0.000978 0.000978 -0.999999 
111.666962 21.984360 32.500000 0.000978 0.000978 -0.999999 
115.727493 22.187071 32.500000 0.000978 0.000978 -0.999999 
108.168510 24.462675 32.500000 0.000978 0.000978 -0.999999 
117.881157 24.112942 32.500000 0.000978 0.000978 -0.999999 
118.390709 27.308126 32.500000 0.000978 0.000978 -0.999999 
118.735474 25.146273 32.500000 0.000978 0.000978 -0.999999 
112.238464 25.180485 32.500000 0.000978 0.000978 -0.999999 
115.050644 26.991585 32.500000 0.000978 0.000978 -0.999999 
118.458008 22.476713 32.500000 0.000978 0.000978 -0.999999 
114.421738 24.851467 32.500000 0.000978 0.000978 -0.999999 
116.657593 26.190420 32.500000 0.000978 0.000978 -0.999999 
111.328804 28.206234 32.500000 0.000978 0.000978 -0.999999 
111.033218 30.111074 32.500000 0.000978 0.000978 -0.999999 
111.427155 28.995909 32.500000 0.000978 0.000978 -0.999999 
109.734055 27.037346 32.500000 0.000978 0.000978 -0.999999 
111.446342 31.960852 32.500000 0.000978 0.000978 -0.999999 
111.981949 32.210373 32.500000 0.000978 0.000978 -0.999999 
114.782974 30.715813 32.500000 0.000978 0.000978 -0.999999 
113.351944 31.205303 32.500000 0.000978 0.000978 -0.999999 
115.026764 34.242496 32.500000 0.000978 0.000978 -0.999999 
115.535393 31.113594 32.500000 0.000978 0.000978 -0.999999 
114.685150 32.505039 32.500000 0.000978 0.000978 -0.999999 
118.177925 29.787689 32.500000 0.000978 0.000978 -0.999999 
117.755821 33.639374 32.500000 0.000978 0.000978 -0.999999 
112.399216 36.505459 32.500000 0.000978 0.000978 -0.999999 
116.937378 36.089558 32.500000 0.000978 0.000978 -0.999999 
114.642715 36.022942 32.500000 0.000978 0.000978 -0.999999 
117.347908 39.169308 32.500000 0.000978 0.000978 -0.999999 
119.886658 45.547382 32.500000 0.000978 0.000978 -0.999999 
118.476250 44.968124 32.500000 0.000978 0.000978 -0.999999 
119.858543 50.044533 32.500000 0.000978 0.000978 -0.999999 
124.767273 70.787979 32.500000 0.000978 0.000978 -0.999999 
120.555168 58.812515 32.500000 0.000978 0.000978 -0.999999 
121.633469 63.510582 32.500000 0.000978 0.000978 -0.999999 
117.470680 38.064068 32.500000 0.000978 0.000978 -0.999999 
117.804504 41.744022 32.500000 0.000978 0.000978 -0.999999 
117.545670 39.448269 32.500000 0.000978 0.000978 -0.999999 
122.113007 64.650688 32.500000 0.000978 0.000978 -0.999999 
120.459778 54.764072 32.500000 0.000978 0.000978 -0.999999 
119.560371 41.790894 32.500000 0.000978 0.000978 -0.999999 
120.160599 51.731712 32.500000 0.000978 0.000978 -0.999999 
119.161514 44.665771 32.500000 0.000978 0.000978 -0.999999 
118.898895 56.753632 32.500000 0.000978 0.000978 -0.999999 
122.955246 63.272957 32.500000 0.000978 0.000978 -0.999999 
122.507141 60.241608 32.500000 0.000978 0.000978 -0.999999 
119.465248 47.788563 32.500000 0.000978 0.000978 -0.999999 
121.232895 61.013161 32.500000 0.000978 0.000978 -0.999999 
117.456039 37.006683 32.500000 0.000978 0.000978 -0.999999 
116.221825 47.200340 32.500000 0.000978 0.000978 -0.999999 
120.222656 53.168335 32.500000 0.000978 0.000978 -0.999999 
117.088448 40.833488 32.500000 0.000978 0.000978 -0.999999 
117.538437 38.956825 32.500000 0.000978 0.000978 -0.999999 
119.574745 44.162468 32.500000 0.000978 0.000978 -0.999999 
115.685585 38.979675 32.500000 0.000978 0.000978 -0.999999 
117.261917 51.032082 32.500000 0.000978 0.000978 -0.999999 
114.276260 40.060490 32.500000 0.000978 0.000978 -0.999999 
119.668243 50.468647 32.500000 0.000978 0.000978 -0.999999 
119.227585 51.855515 32.500000 0.000978 0.000978 -0.999999 
117.741241 43.006680 32.500000 0.000978 0.000978 -0.999999 
120.470421 49.338005 32.500000 0.000978 0.000978 -0.999999 
119.782387 53.067810 32.500000 0.000978 0.000978 -0.999999 
116.392822 55.168415 32.500000 0.000978 0.000978 -0.999999 
113.753304 43.133224 32.500000 0.000978 0.000978 -0.999999 
122.339279 76.398163 32.500000 0.000978 0.000978 -0.999999 
115.537193 50.213909 32.500000 0.000978 0.000978 -0.999999 
116.094193 52.795895 32.500000 0.000978 0.000978 -0.999999 
118.856918 60.940006 32.500000 0.000978 0.000978 -0.999999 
119.899277 62.985443 32.500000 0.000978 0.000978 -0.999999 
120.323318 64.548523 32.500000 0.000978 0.000978 -0.999999 
119.376610 66.042595 32.500000 0.000978 0.000978 -0.999999 
123.308624 74.954620 32.500000 0.000978 0.000978 -0.999999 
117.886879 61.253948 32.500000 0.000978 0.000978 -0.999999 
123.637512 70.919426 32.500000 0.000978 0.000978 -0.999999 
119.982971 68.391434 32.500000 0.000978 0.000978 -0.999999 
123.806717 72.379257 32.500000 0.000978 0.000978 -0.999999 
124.450302 75.904274 32.500000 0.000978 0.000978 -0.999999 
117.631004 55.850521 32.500000 0.000978 0.000978 -0.999999 
123.249168 75.989037 32.500000 0.000978 0.000978 -0.999999 
119.647079 63.097397 32.500000 0.000978 0.000978 -0.999999 
118.187904 62.670311 32.500000 0.000978 0.000978 -0.999999 
124.599258 73.348511 32.500000 0.000978 0.000978 -0.999999 
119.889175 66.681221 32.500000 0.000978 0.000978 -0.999999 
113.073059 42.521755 32.500000 0.000978 0.000978 -0.999999 
114.332901 54.837128 32.500000 0.000978 0.000978 -0.999999 
114.837013 56.166737 32.500000 0.000978 0.000978 -0.999999 
113.164734 43.144669 32.500000 0.000978 0.000978 -0.999999 
115.168655 60.191933 32.500000 0.000978 0.000978 -0.999999 
117.015854 74.912209 32.500000 0.000978 0.000978 -0.999999 
117.934189 67.286537 32.500000 0.000978 0.000978 -0.999999 
117.129265 67.930969 32.500000 0.000978 0.000978 -0.999999 
114.458618 51.512424 32.500000 0.000978 0.000978 -0.999999 
118.061874 68.653595 32.500000 0.000978 0.000978 -0.999999 
113.023697 42.498779 32.500000 0.000978 0.000978 -0.999999 
113.555779 45.417576 32.500000 0.000978 0.000978 -0.999999 
117.947159 63.523067 32.500000 0.000978 0.000978 -0.999999 
113.197128 44.951939 32.500000 0.000978 0.000978 -0.999999 
117.971207 70.522232 32.500000 0.000978 0.000978 -0.999999 
115.369392 57.249420 32.500000 0.000978 0.000978 -0.999999 
120.012871 71.494041 32.500000 0.000978 0.000978 -0.999999 
119.133507 75.359489 32.500000 0.000978 0.000978 -0.999999 
116.392357 56.585484 32.500000 0.000978 0.000978 -0.999999 
116.789848 64.812492 32.500000 0.000978 0.000978 -0.999999 
113.524307 47.891338 32.500000 0.000978 0.000978 -0.999999 
113.522224 57.163971 32.500000 0.000978 0.000978 -0.999999 
113.948570 76.588364 32.500000 0.000978 0.000978 -0.999999 
114.146614 69.027718 32.500000 0.000978 0.000978 -0.999999 
112.899261 58.977661 32.500000 0.000978 0.000978 -0.999999 
114.922569 71.765869 32.500000 0.000978 0.000978 -0.999999 
114.178474 71.204094 32.500000 0.000978 0.000978 -0.999999 
115.720482 77.318062 32.500000 0.000978 0.000978 -0.999999 
114.891716 73.403725 32.500000 0.000978 0.000978 -0.999999 
115.731773 76.550880 32.500000 0.000978 0.000978 -0.999999 
112.484306 68.049843 32.500000 0.000978 0.000978 -0.999999 
114.451408 70.762619 32.500000 0.000978 0.000978 -0.999999 
112.872246 57.473583 32.500000 0.000978 0.000978 -0.999999 
113.871300 57.152214 32.500000 0.000978 0.000978 -0.999999 
113.199600 57.138435 32.500000 0.000978 0.000978 -0.999999 
112.542572 41.827972 32.500000 0.000978 0.000978 -0.999999 
113.319695 63.387466 32.500000 0.000978 0.000978 -0.999999 
114.940300 69.025581 32.500000 0.000978 0.000978 -0.999999 
112.963219 73.524673 32.500000 0.000978 0.000978 -0.999999 
115.412170 72.122696 32.500000 0.000978 0.000978 -0.999999 
113.289970 48.072304 32.500000 0.000978 0.000978 -0.999999 
114.004570 76.543709 32.500000 0.000978 0.000978 -0.999999 
138.738983 -2.726359 32.500000 0.000978 0.000978 -0.999999 
135.433868 1.699325 32.500000 0.000978 0.000978 -0.999999 
134.592575 2.635478 32.500000 0.000978 0.000978 -0.999999 
136.950729 0.746514 32.500000 0.000978 0.000978 -0.999999 
139.466537 -2.053721 32.500000 0.000978 0.000978 -0.999999 
134.726410 1.987462 32.500000 0.000978 0.000978 -0.999999 
137.257935 -4.464601 32.500000 0.000978 0.000978 -0.999999 
134.864212 -0.443091 32.500000 0.000978 0.000978 -0.999999 
134.915390 4.136185 32.500000 0.000978 0.000978 -0.999999 
137.986801 4.332331 32.500000 0.000978 0.000978 -0.999999 
139.885498 -1.328389 32.500000 0.000978 0.000978 -0.999999 
138.133026 3.848106 32.500000 0.000978 0.000978 -0.999999 
139.976410 2.893144 32.500000 0.000978 0.000978 -0.999999 
138.670609 2.017482 32.500000 0.000978 0.000978 -0.999999 
140.478592 3.114923 32.500000 0.000978 0.000978 -0.999999 
141.093262 2.036113 32.500000 0.000978 0.000978 -0.999999 
142.997360 -1.406981 32.500000 0.000978 0.000978 -0.999999 
142.389191 0.729479 32.500000 0.000978 0.000978 -0.999999 
141.001740 -0.554206 32.500000 0.000978 0.000978 -0.999999 
146.441116 -2.758400 32.500000 0.000978 0.000978 -0.999999 
143.875046 -3.012854 32.500000 0.000978 0.000978 -0.999999 
143.991791 2.023694 32.500000 0.000978 0.000978 -0.999999 
143.955338 1.739088 32.500000 0.000978 0.000978 -0.999999 
146.861008 2.877517 32.500000 0.000978 0.000978 -0.999999 
147.286942 2.175802 32.500000 0.000978 0.000978 -0.999999 
146.237793 2.159882 32.500000 0.000978 0.000978 -0.999999 
162.730240 -0.468213 32.500000 0.000978 0.000978 -0.999999 
168.068802 -1.270879 32.500000 0.000978 0.000978 -0.999999 
149.763626 -2.254534 32.500000 0.000978 0.000978 -0.999999 
156.426620 -2.910355 32.500000 0.000978 0.000978 -0.999999 
157.376953 -0.657407 32.500000 0.000978 0.000978 -0.999999 
155.316605 1.222430 32.500000 0.000978 0.000978 -0.999999 
163.615860 -1.515759 32.500000 0.000978 0.000978 -0.999999 
154.880966 0.759837 32.500000 0.000978 0.000978 -0.999999 
174.904221 -0.894236 32.500000 0.000978 0.000978 -0.999999 
155.303879 -1.665908 32.500000 0.000978 0.000978 -0.999999 
152.540100 0.336401 32.500000 0.000978 0.000978 -0.999999 
156.919846 -0.032922 32.500000 0.000978 0.000978 -0.999999 
165.480118 0.945286 32.500000 0.000978 0.000978 -0.999999 
152.551407 1.105927 32.500000 0.000978 0.000978 -0.999999 
159.468307 -1.292467 32.500000 0.000978 0.000978 -0.999999 
148.489594 -2.456107 32.500000 0.000978 0.000978 -0.999999 
158.888657 -1.563013 32.500000 0.000978 0.000978 -0.999999 
181.451019 -1.851849 32.500000 0.000978 0.000978 -0.999999 
149.837173 0.042178 32.500000 0.000978 0.000978 -0.999999 
149.963364 1.320761 32.500000 0.000978 0.000978 -0.999999 
152.021118 2.017865 32.500000 0.000978 0.000978 -0.999999 
177.974945 -2.199004 32.500000 0.000978 0.000978 -0.999999 
185.679398 -1.683844 32.500000 0.000978 0.000978 -0.999999 
174.688354 -2.426556 32.500000 0.000978 0.000978 -0.999999 
181.497131 -2.570106 32.500000 0.000978 0.000978 -0.999999 
156.563477 -2.154169 32.500000 0.000978 0.000978 -0.999999 
161.466644 -2.783238 32.500000 0.000978 0.000978 -0.999999 
165.527023 -0.478668 32.500000 0.000978 0.000978 -0.999999 
154.043320 0.467974 32.500000 0.000978 0.000978 -0.999999 
149.805344 1.927039 32.500000 0.000978 0.000978 -0.999999 
171.686829 -0.049087 32.500000 0.000978 0.000978 -0.999999 
171.695190 -2.641173 32.500000 0.000978 0.000978 -0.999999 
181.131119 -2.267042 32.500000 0.000978 0.000978 -0.999999 
152.598328 1.820506 32.500000 0.000978 0.000978 -0.999999 
148.977524 -0.805706 32.500000 0.000978 0.000978 -0.999999 
169.491577 1.681150 32.500000 0.000978 0.000978 -0.999999 
183.167404 2.480151 32.500000 0.000978 0.000978 -0.999999 
166.538361 2.284616 32.500000 0.000978 0.000978 -0.999999 
170.590271 2.870247 32.500000 0.000978 0.000978 -0.999999 
186.640686 -0.903713 32.500000 0.000978 0.000978 -0.999999 
168.924057 2.804337 32.500000 0.000978 0.000978 -0.999999 
193.289413 2.144809 32.500000 0.000978 0.000978 -0.999999 
165.225815 2.583058 32.500000 0.000978 0.000978 -0.999999 
169.374069 2.092707 32.500000 0.000978 0.000978 -0.999999 
182.712448 -0.550973 32.500000 0.000978 0.000978 -0.999999 
184.217422 -0.357084 32.500000 0.000978 0.000978 -0.999999 
181.090073 0.704711 32.500000 0.000978 0.000978 -0.999999 
192.361450 -1.868396 32.500000 0.000978 0.000978 -0.999999 
167.973297 1.486416 32.500000 0.000978 0.000978 -0.999999 
171.365036 0.613010 32.500000 0.000978 0.000978 -0.999999 
189.121078 -1.541815 32.500000 0.000978 0.000978 -0.999999 
191.123825 -1.694447 32.500000 0.000978 0.000978 -0.999999 
188.035690 2.651151 32.500000 0.000978 0.000978 -0.999999 
188.555695 -0.817536 32.500000 0.000978 0.000978 -0.999999 
188.599243 2.788729 32.500000 0.000978 0.000978 -0.999999 
189.068405 -1.961433 32.500000 0.000978 0.000978 -0.999999 
179.224075 1.460299 32.500000 0.000978 0.000978 -0.999999 
191.198914 2.772473 32.500000 0.000978 0.000978 -0.999999 
180.284607 2.144430 32.500000 0.000978 0.000978 -0.999999 
177.097992 1.726969 32.500000 0.000978 0.000978 -0.999999 
181.900635 -0.323845 32.500000 0.000978 0.000978 -0.999999 
173.970703 1.874532 32.500000 0.000978 0.000978 -0.999999 
169.228882 1.021775 32.500000 0.000978 0.000978 -0.999999 
172.567490 1.590755 32.500000 0.000978 0.000978 -0.999999 
169.029556 2.458302 32.500000 0.000978 0.000978 -0.999999 
178.439362 1.980990 32.500000 0.000978 0.000978 -0.999999 
167.748795 4.808638 32.500000 0.000978 0.000978 -0.999999 
165.925644 3.500857 32.500000 0.000978 0.000978 -0.999999 
183.530258 6.193389 32.500000 0.000978 0.000978 -0.999999 
193.363525 5.796880 32.500000 0.000978 0.000978 -0.999999 
183.659531 6.196838 32.500000 0.000978 0.000978 -0.999999 
194.853790 3.360946 32.500000 0.000978 0.000978 -0.999999 
185.903198 5.033031 32.500000 0.000978 0.000978 -0.999999 
177.881958 3.811968 32.500000 0.000978 0.000978 -0.999999 
183.508316 4.798937 32.500000 0.000978 0.000978 -0.999999 
174.243973 4.250230 32.500000 0.000978 0.000978 -0.999999 
191.408691 6.718062 32.500000 0.000978 0.000978 -0.999999 
185.759399 4.313935 32.500000 0.000978 0.000978 -0.999999 
183.511780 4.611848 32.500000 0.000978 0.000978 -0.999999 
187.966644 4.828017 32.500000 0.000978 0.000978 -0.999999 
181.942383 3.681517 32.500000 0.000978 0.000978 -0.999999 
179.002136 4.900942 32.500000 0.000978 0.000978 -0.999999 
181.722336 4.501894 32.500000 0.000978 0.000978 -0.999999 
181.370117 5.059143 32.500000 0.000978 0.000978 -0.999999 
158.457016 3.896900 32.500000 0.000978 0.000978 -0.999999 
174.380310 5.207997 32.500000 0.000978 0.000978 -0.999999 
180.163406 5.193918 32.500000 0.000978 0.000978 -0.999999 
190.490814 5.776424 32.500000 0.000978 0.000978 -0.999999 
169.777924 3.633867 32.500000 0.000978 0.000978 -0.999999 
187.414917 6.441180 32.500000 0.000978 0.000978 -0.999999 
185.147278 5.783097 32.500000 0.000978 0.000978 -0.999999 
183.413300 -6.123680 32.500000 0.000978 0.000978 -0.999999 
187.872375 -3.720787 32.500000 0.000978 0.000978 -0.999999 
194.762268 -4.991540 32.500000 0.000978 0.000978 -0.999999 
179.093277 -3.617656 32.500000 0.000978 0.000978 -0.999999 
190.217697 -6.317801 32.500000 0.000978 0.000978 -0.999999 
187.184113 -4.950668 32.500000 0.000978 0.000978 -0.999999 
161.291229 -4.145961 32.500000 0.000978 0.000978 -0.999999 
192.600174 -3.571286 32.500000 0.000978 0.000978 -0.999999 
170.452103 -3.794133 32.500000 0.000978 0.000978 -0.999999 
159.049454 -3.469491 32.500000 0.000978 0.000978 -0.999999 
193.739822 -4.643512 32.500000 0.000978 0.000978 -0.999999 
155.718826 -3.407399 32.500000 0.000978 0.000978 -0.999999 
184.131119 -3.829937 32.500000 0.000978 0.000978 -0.999999 
182.470398 -5.578342 32.500000 0.000978 0.000978 -0.999999 
192.432205 -3.835673 32.500000 0.000978 0.000978 -0.999999 
194.135376 -5.229450 32.500000 0.000978 0.000978 -0.999999 
163.457123 -3.544283 32.500000 0.000978 0.000978 -0.999999 
180.268677 -5.572775 32.500000 0.000978 0.000978 -0.999999 
178.549744 -3.725633 32.500000 0.000978 0.000978 -0.999999 
191.840408 -3.528221 32.500000 0.000978 0.000978 -0.999999 
183.307022 -5.431779 32.500000 0.000978 0.000978 -0.999999 
188.996933 -5.528558 32.500000 0.000978 0.000978 -0.999999 
174.722946 -3.507260 32.500000 0.000978 0.000978 -0.999999 
186.416412 -4.852714 32.500000 0.000978 0.000978 -0.999999 
178.182266 -4.901017 32.500000 0.000978 0.000978 -0.999999 
112.907265 79.350868 32.729881 0.001143 0.188635 -0.982047 
117.839775 79.092590 32.736221 0.014987 0.180995 -0.983370 
116.626244 78.708290 32.674850 0.007765 0.136446 -0.990617 
119.444046 77.202225 32.507462 0.000985 0.006896 -0.999976 
121.273560 79.025299 32.768490 0.022419 0.206494 -0.978191 
122.610443 77.751030 32.619892 0.016209 0.096173 -0.995233 
125.734436 78.667915 32.785572 0.039993 0.226626 -0.973160 
126.053772 78.423676 32.760124 0.036990 0.208815 -0.977255 
113.268250 81.016678 33.231174 0.003800 0.358467 -0.933535 
113.737999 79.986115 32.840763 0.005991 0.255196 -0.966871 
113.411835 81.961739 33.600437 0.006588 0.451941 -0.892024 
116.240700 81.143433 33.329247 0.016788 0.383552 -0.923367 
123.182167 81.068100 33.554688 0.058487 0.433891 -0.899065 
121.738655 80.963707 33.441872 0.049404 0.407252 -0.911978 
119.770721 81.653046 33.630341 0.039104 0.451719 -0.891303 
125.618881 81.590088 34.016407 0.083736 0.515191 -0.852975 
124.144669 82.046204 34.190037 0.078351 0.542762 -0.836224 
125.739082 83.046303 35.058586 0.107823 0.657276 -0.745897 
122.252586 83.160233 34.827461 0.076499 0.630753 -0.772204 
122.913300 83.687500 35.295425 0.086029 0.686771 -0.721765 
124.198235 84.297630 36.201603 0.110699 0.766034 -0.633196 
124.581093 84.493713 36.500015 0.116511 0.789032 -0.603204 
121.961418 85.435448 37.310349 0.092855 0.849984 -0.518561 
121.538315 84.939812 36.602703 0.085318 0.799678 -0.594336 
126.735985 85.501854 38.742207 0.153876 0.913373 -0.376925 
126.947945 85.168098 38.146130 0.151197 0.885580 -0.439190 
122.047653 86.264313 39.163071 0.106133 0.936392 -0.334522 
123.766113 86.015457 39.064442 0.124291 0.930131 -0.345555 
125.604889 86.109222 40.242020 0.147631 0.962871 -0.226020 
127.018745 85.716705 39.396317 0.160867 0.936328 -0.312109 
124.121002 86.511879 41.230476 0.134823 0.982628 -0.127535 
125.851082 86.385689 41.814816 0.154280 0.985744 -0.067130 
113.452202 82.652443 34.016663 0.006755 0.522804 -0.852426 
115.992744 82.457985 33.942696 0.023122 0.512757 -0.858222 
114.082748 82.388275 33.846508 0.012094 0.498561 -0.866770 
115.079613 83.716286 34.821854 0.018118 0.636921 -0.770716 
112.920830 84.174385 35.081131 0.006924 0.671622 -0.740862 
113.745316 84.269020 35.209503 0.012545 0.684397 -0.729001 
115.553604 84.866478 35.973518 0.026689 0.754306 -0.655980 
112.577217 85.766571 36.894650 0.004077 0.827627 -0.561264 
118.351891 85.779541 37.322239 0.060047 0.853223 -0.518078 
118.049904 85.206161 36.554234 0.052351 0.799412 -0.598498 
114.186333 85.952293 37.345001 0.020393 0.855148 -0.517983 
113.219025 86.661285 38.681675 0.008989 0.923305 -0.383961 
118.862183 85.976028 37.713943 0.065057 0.876194 -0.477547 
115.204277 86.801353 39.224384 0.031859 0.944309 -0.327513 
115.667137 86.487045 38.526875 0.032956 0.916173 -0.399425 
117.031639 86.911438 39.833412 0.053810 0.962319 -0.266546 
119.544640 86.836700 39.886997 0.080268 0.961944 -0.261190 
117.532928 87.288528 42.100052 0.058801 0.997486 -0.039557 
114.475822 87.283806 41.099659 0.023646 0.989763 -0.140751 
119.688423 87.098961 42.079483 0.084337 0.995613 -0.040525 
122.361435 86.911842 42.490238 0.115898 0.993261 0.001083 
112.892807 87.442299 41.621189 0.007457 0.996055 -0.088420 
124.848740 79.153252 32.892471 0.043401 0.264128 -0.963511 
124.574005 79.348038 32.952209 0.043850 0.281895 -0.958443 
126.140190 78.069862 35.544971 0.984919 -0.173011 0.001131 
126.123558 77.975540 35.109665 0.984919 -0.173011 0.001131 
122.006241 54.625053 34.092716 0.984919 -0.173011 0.001131 
120.145699 44.073383 32.636425 0.984919 -0.173011 0.001131 
121.983284 54.494865 33.005577 0.984919 -0.173011 0.001131 
125.326065 73.452721 34.780277 0.984919 -0.173011 0.001131 
125.488998 74.376793 33.951435 0.984919 -0.173011 0.001131 
120.823570 47.917793 32.642220 0.984919 -0.173011 0.001131 
122.111816 55.223820 32.734280 0.984919 -0.173011 0.001131 
123.124825 60.968872 34.479401 0.984919 -0.173011 0.001131 
125.406212 73.907288 34.447723 0.984919 -0.173011 0.001131 
122.350060 56.574959 33.269043 0.984919 -0.173011 0.001131 
122.668076 58.378525 34.508087 0.984919 -0.173011 0.001131 
121.999069 54.584381 33.693096 0.984919 -0.173011 0.001131 
123.572319 63.506733 34.245640 0.984919 -0.173011 0.001131 
121.398056 51.175880 32.724857 0.984919 -0.173011 0.001131 
120.048668 43.523098 33.071758 0.984919 -0.173011 0.001131 
121.210831 50.114086 33.055958 0.984919 -0.173011 0.001131 
124.247986 67.338615 33.546009 0.984919 -0.173011 0.001131 
121.376472 51.053459 33.712772 0.984919 -0.173011 0.001131 
122.228630 55.886314 33.038994 0.984919 -0.173011 0.001131 
120.436348 45.721771 32.820984 0.984919 -0.173011 0.001131 
120.470482 45.915337 33.210983 0.984919 -0.173011 0.001131 
123.670929 64.065994 35.224274 0.984919 -0.173011 0.001131 
123.319862 62.074978 32.843788 0.984919 -0.173011 0.001131 
124.962021 71.388145 36.452423 0.984919 -0.173011 0.001131 
124.413399 68.276741 35.943584 0.984919 -0.173011 0.001131 
122.119987 55.270168 36.547138 0.984919 -0.173011 0.001131 
125.289886 73.247551 37.364056 0.984919 -0.173011 0.001131 
119.048080 37.848499 36.789490 0.984919 -0.173011 0.001131 
120.029350 43.413567 34.433456 0.984919 -0.173011 0.001131 
122.344963 56.546074 35.879402 0.984919 -0.173011 0.001131 
123.541389 63.331329 37.346703 0.984919 -0.173011 0.001131 
122.891884 59.647789 35.862289 0.984919 -0.173011 0.001131 
119.366562 39.654716 33.875145 0.984919 -0.173011 0.001131 
118.996780 37.557556 36.083870 0.984919 -0.173011 0.001131 
119.676125 41.410316 35.825340 0.984919 -0.173011 0.001131 
120.506233 46.118092 34.403828 0.984919 -0.173011 0.001131 
122.727730 58.716827 35.741093 0.984919 -0.173011 0.001131 
119.211952 38.777859 36.565273 0.984919 -0.173011 0.001131 
123.439522 62.753605 37.349655 0.984919 -0.173011 0.001131 
120.934151 48.544941 35.556057 0.984919 -0.173011 0.001131 
121.755569 53.203423 35.972221 0.984919 -0.173011 0.001131 
121.848351 53.729607 35.315834 0.984919 -0.173011 0.001131 
118.884758 36.922264 36.647480 0.984919 -0.173011 0.001131 
118.848946 36.719158 34.859493 0.984919 -0.173011 0.001131 
123.060226 60.602497 36.830021 0.984919 -0.173011 0.001131 
118.665520 35.678905 36.855228 0.984919 -0.173011 0.001131 
123.137573 61.041168 35.984013 0.984919 -0.173011 0.001131 
120.026489 43.397346 34.252766 0.984919 -0.173011 0.001131 
118.766174 36.249741 36.284756 0.984919 -0.173011 0.001131 
126.692444 81.201836 34.626938 0.984919 -0.173011 0.001131 
126.173058 78.256294 37.125214 0.984919 -0.173011 0.001131 
126.688774 81.181053 36.050106 0.984919 -0.173011 0.001131 
126.813072 81.885925 38.515583 0.984919 -0.173011 0.001131 
126.610687 80.738152 40.202312 0.984919 -0.173011 0.001131 
127.459541 85.552238 40.205494 0.984919 -0.173011 0.001131 
127.175629 83.942116 39.998859 0.984919 -0.173011 0.001131 
121.389412 -81.722786 41.070866 -0.106345 0.951851 0.287525 
122.254684 -81.899353 42.461727 -0.119314 0.992827 0.007662 
120.204361 -81.664833 40.560356 -0.088493 0.916242 0.390730 
123.794174 -80.981331 40.081341 -0.122433 0.865672 0.485410 
121.081902 -80.744576 39.250851 -0.082773 0.753671 0.652019 
123.756973 -80.044151 38.876415 -0.095462 0.679987 0.726984 
123.554848 -79.839844 38.671253 -0.088914 0.634058 0.768157 
122.317398 -79.268288 38.160618 -0.059654 0.489717 0.869838 
119.565315 -78.726761 37.781921 -0.028988 0.313825 0.949038 
122.808861 -77.825508 37.633980 -0.029793 0.215698 0.976005 
118.214737 -77.282013 37.503819 0.000983 0.006883 0.999976 
116.348106 -77.647156 37.532539 -0.001030 0.054614 0.998507 
117.202827 -78.624573 37.690231 -0.015800 0.266168 0.963797 
114.506149 -77.821373 37.543945 0.001050 0.078785 0.996891 
116.363632 -79.475075 38.009586 -0.019805 0.431745 0.901778 
118.264992 -79.780968 38.199337 -0.037035 0.508889 0.860035 
113.786850 -80.659943 38.682766 -0.009708 0.644917 0.764191 
116.178711 -80.940536 39.058723 -0.032502 0.722107 0.691018 
119.143959 -81.004829 39.306515 -0.064577 0.762011 0.644337 
113.693756 -81.604271 39.771309 -0.012267 0.835535 0.549300 
119.021561 -81.693611 40.363899 -0.072635 0.900400 0.428958 
116.802826 -82.076828 41.054974 -0.051897 0.955660 0.289863 
117.469902 -82.153130 41.431442 -0.059799 0.975096 0.213569 
118.589600 -82.186874 42.097507 -0.075404 0.993763 0.082157 
114.989281 44.574142 37.500000 0.000978 0.000978 0.999999 
118.538681 38.375233 37.500000 0.000978 0.000978 0.999999 
118.282669 39.515446 37.500000 0.000978 0.000978 0.999999 
120.823204 51.155334 37.500000 0.000978 0.000978 0.999999 
117.857750 53.240520 37.500000 0.000978 0.000978 0.999999 
118.024223 45.429199 37.500000 0.000978 0.000978 0.999999 
123.017136 65.778984 37.500000 0.000978 0.000978 0.999999 
122.040329 58.309380 37.500000 0.000978 0.000978 0.999999 
118.547447 47.577675 37.500000 0.000978 0.000978 0.999999 
118.142769 45.453899 37.500000 0.000978 0.000978 0.999999 
118.730690 43.846710 37.500000 0.000978 0.000978 0.999999 
119.418289 49.187172 37.500000 0.000978 0.000978 0.999999 
119.881165 53.330780 37.500000 0.000978 0.000978 0.999999 
123.305832 67.538475 37.500000 0.000978 0.000978 0.999999 
117.844582 50.949722 37.500000 0.000978 0.000978 0.999999 
116.269814 46.237755 37.500000 0.000978 0.000978 0.999999 
118.814926 50.667213 37.500000 0.000978 0.000978 0.999999 
116.776443 37.552280 37.500000 0.000978 0.000978 0.999999 
118.587563 42.174511 37.500000 0.000978 0.000978 0.999999 
120.090775 47.779465 37.500000 0.000978 0.000978 0.999999 
119.420883 58.324421 37.500000 0.000978 0.000978 0.999999 
117.554054 50.867203 37.500000 0.000978 0.000978 0.999999 
120.777550 48.766075 37.500000 0.000978 0.000978 0.999999 
118.871422 47.637920 37.500000 0.000978 0.000978 0.999999 
122.194962 57.997128 37.500000 0.000978 0.000978 0.999999 
114.238235 39.024029 37.500000 0.000978 0.000978 0.999999 
121.142838 57.511730 37.500000 0.000978 0.000978 0.999999 
118.889786 37.201744 37.500000 0.000978 0.000978 0.999999 
116.384178 48.456467 37.500000 0.000978 0.000978 0.999999 
117.439034 37.417709 37.500000 0.000978 0.000978 0.999999 
119.600922 49.413933 37.500000 0.000978 0.000978 0.999999 
115.125671 44.767948 37.500000 0.000978 0.000978 0.999999 
115.692894 42.750877 37.500000 0.000978 0.000978 0.999999 
115.602043 50.119583 37.500000 0.000978 0.000978 0.999999 
119.997070 68.295013 37.500000 0.000978 0.000978 0.999999 
123.541466 75.517403 37.500000 0.000978 0.000978 0.999999 
119.645363 63.363693 37.500000 0.000978 0.000978 0.999999 
118.533829 58.393913 37.500000 0.000978 0.000978 0.999999 
116.563118 55.765690 37.500000 0.000978 0.000978 0.999999 
118.131607 59.649227 37.500000 0.000978 0.000978 0.999999 
120.200333 71.283791 37.500000 0.000978 0.000978 0.999999 
121.983276 67.859177 37.500000 0.000978 0.000978 0.999999 
118.698288 64.282913 37.500000 0.000978 0.000978 0.999999 
117.614113 56.476921 37.500000 0.000978 0.000978 0.999999 
117.458633 53.599117 37.500000 0.000978 0.000978 0.999999 
124.138252 72.816399 37.500000 0.000978 0.000978 0.999999 
116.472359 53.303871 37.500000 0.000978 0.000978 0.999999 
116.400055 55.007931 37.500000 0.000978 0.000978 0.999999 
118.458282 62.554012 37.500000 0.000978 0.000978 0.999999 
116.817154 55.165291 37.500000 0.000978 0.000978 0.999999 
121.905426 66.155487 37.500000 0.000978 0.000978 0.999999 
120.018501 66.231590 37.500000 0.000978 0.000978 0.999999 
119.088631 59.991722 37.500000 0.000978 0.000978 0.999999 
123.862244 75.642776 37.500000 0.000978 0.000978 0.999999 
118.585724 73.160164 37.500000 0.000978 0.000978 0.999999 
117.054886 61.837933 37.500000 0.000978 0.000978 0.999999 
115.403557 56.990150 37.500000 0.000978 0.000978 0.999999 
116.420837 73.143089 37.500000 0.000978 0.000978 0.999999 
117.383286 75.222305 37.500000 0.000978 0.000978 0.999999 
113.805069 46.012806 37.500000 0.000978 0.000978 0.999999 
112.983528 42.429852 37.500000 0.000978 0.000978 0.999999 
117.352501 64.577621 37.500000 0.000978 0.000978 0.999999 
116.347229 72.205673 37.500000 0.000978 0.000978 0.999999 
117.636055 69.250313 37.500000 0.000978 0.000978 0.999999 
116.035263 62.350693 37.500000 0.000978 0.000978 0.999999 
117.219223 74.932472 37.500000 0.000978 0.000978 0.999999 
116.736748 57.932957 37.500000 0.000978 0.000978 0.999999 
119.509682 76.821007 37.500000 0.000978 0.000978 0.999999 
115.989502 66.738708 37.500000 0.000978 0.000978 0.999999 
115.600952 58.499733 37.500000 0.000978 0.000978 0.999999 
118.143005 72.977097 37.500000 0.000978 0.000978 0.999999 
114.127579 50.986916 37.500000 0.000978 0.000978 0.999999 
116.187279 64.375229 37.500000 0.000978 0.000978 0.999999 
118.927086 76.067307 37.500000 0.000978 0.000978 0.999999 
114.751793 54.418159 37.500000 0.000978 0.000978 0.999999 
112.408760 53.761734 37.500000 0.000978 0.000978 0.999999 
112.965233 48.711742 37.500000 0.000978 0.000978 0.999999 
114.951683 71.937981 37.500000 0.000978 0.000978 0.999999 
113.832901 64.556175 37.500000 0.000978 0.000978 0.999999 
112.479523 72.390678 37.500000 0.000978 0.000978 0.999999 
114.606972 66.082298 37.500000 0.000978 0.000978 0.999999 
114.601013 60.357933 37.500000 0.000978 0.000978 0.999999 
115.041939 68.742340 37.500000 0.000978 0.000978 0.999999 
113.965652 56.076309 37.500000 0.000978 0.000978 0.999999 
113.474579 69.599411 37.500000 0.000978 0.000978 0.999999 
112.545685 46.165092 37.500000 0.000978 0.000978 0.999999 
113.612152 63.172142 37.500000 0.000978 0.000978 0.999999 
113.272438 51.594879 37.500000 0.000978 0.000978 0.999999 
113.408051 62.513794 37.500000 0.000978 0.000978 0.999999 
113.498863 77.207169 37.500000 0.000978 0.000978 0.999999 
112.949509 59.460815 37.500000 0.000978 0.000978 0.999999 
112.949745 46.570869 37.500000 0.000978 0.000978 0.999999 
113.712608 74.809685 37.500000 0.000978 0.000978 0.999999 
114.149559 71.089584 37.500000 0.000978 0.000978 0.999999 
115.536072 71.884331 37.500000 0.000978 0.000978 0.999999 
115.956421 71.477226 37.500000 0.000978 0.000978 0.999999 
115.335815 36.237473 37.500000 0.000978 0.000978 0.999999 
112.456039 37.842587 37.500000 0.000978 0.000978 0.999999 
114.223793 36.855240 37.500000 0.000978 0.000978 0.999999 
117.566071 29.509003 37.500000 0.000978 0.000978 0.999999 
112.796555 34.612499 37.500000 0.000978 0.000978 0.999999 
118.134918 30.056034 37.500000 0.000978 0.000978 0.999999 
117.738251 29.018917 37.500000 0.000978 0.000978 0.999999 
116.411354 34.567310 37.500000 0.000978 0.000978 0.999999 
114.812065 32.527256 37.500000 0.000978 0.000978 0.999999 
112.049858 31.475218 37.500000 0.000978 0.000978 0.999999 
117.550522 28.796829 37.500000 0.000978 0.000978 0.999999 
112.855766 32.819523 37.500000 0.000978 0.000978 0.999999 
113.947609 32.038818 37.500000 0.000978 0.000978 0.999999 
113.169853 27.452847 37.500000 0.000978 0.000978 0.999999 
113.972023 27.202446 37.500000 0.000978 0.000978 0.999999 
110.771614 26.979733 37.500000 0.000978 0.000978 0.999999 
114.960091 27.522881 37.500000 0.000978 0.000978 0.999999 
111.191948 26.415127 37.500000 0.000978 0.000978 0.999999 
117.379318 23.950089 37.500000 0.000978 0.000978 0.999999 
116.065605 24.495541 37.500000 0.000978 0.000978 0.999999 
113.244606 26.267855 37.500000 0.000978 0.000978 0.999999 
117.272858 26.561987 37.500000 0.000978 0.000978 0.999999 
115.322037 24.040337 37.500000 0.000978 0.000978 0.999999 
116.689186 23.141142 37.500000 0.000978 0.000978 0.999999 
113.376083 23.700867 37.500000 0.000978 0.000978 0.999999 
114.450211 22.456343 37.500000 0.000978 0.000978 0.999999 
107.952614 23.330769 37.500000 0.000978 0.000978 0.999999 
111.466591 23.678106 37.500000 0.000978 0.000978 0.999999 
116.733192 21.596567 37.500000 0.000978 0.000978 0.999999 
114.940475 22.243893 37.500000 0.000978 0.000978 0.999999 
112.714607 14.538656 37.500000 0.000978 0.000978 0.999999 
115.011101 18.624298 37.500000 0.000978 0.000978 0.999999 
115.194138 18.241154 37.500000 0.000978 0.000978 0.999999 
110.291824 20.397234 37.500000 0.000978 0.000978 0.999999 
112.622093 16.140305 37.500000 0.000978 0.000978 0.999999 
114.995132 16.809479 37.500000 0.000978 0.000978 0.999999 
112.716965 21.327572 37.500000 0.000978 0.000978 0.999999 
117.898415 19.364737 37.500000 0.000978 0.000978 0.999999 
116.749786 21.300152 37.500000 0.000978 0.000978 0.999999 
111.413147 15.858192 37.500000 0.000978 0.000978 0.999999 
112.291733 20.027464 37.500000 0.000978 0.000978 0.999999 
112.763580 16.237705 37.500000 0.000978 0.000978 0.999999 
109.934143 14.459958 37.500000 0.000978 0.000978 0.999999 
111.418533 15.374459 37.500000 0.000978 0.000978 0.999999 
107.372665 20.565187 37.500000 0.000978 0.000978 0.999999 
111.476883 13.884562 37.500000 0.000978 0.000978 0.999999 
107.959236 16.161949 37.500000 0.000978 0.000978 0.999999 
105.161896 19.550692 37.500000 0.000978 0.000978 0.999999 
106.092461 17.697445 37.500000 0.000978 0.000978 0.999999 
106.497345 17.613712 37.500000 0.000978 0.000978 0.999999 
105.358475 13.606845 37.500000 0.000978 0.000978 0.999999 
105.405991 15.521698 37.500000 0.000978 0.000978 0.999999 
105.832306 16.014482 37.500000 0.000978 0.000978 0.999999 
103.404587 15.492352 37.500000 0.000978 0.000978 0.999999 
103.353439 14.441610 37.500000 0.000978 0.000978 0.999999 
100.701004 16.473265 37.500000 0.000978 0.000978 0.999999 
100.917427 11.745318 37.500000 0.000978 0.000978 0.999999 
103.613129 12.634658 37.500000 0.000978 0.000978 0.999999 
99.914604 12.423683 37.500000 0.000978 0.000978 0.999999 
100.236420 14.956178 37.500000 0.000978 0.000978 0.999999 
102.405121 13.278873 37.500000 0.000978 0.000978 0.999999 
100.078026 15.360488 37.500000 0.000978 0.000978 0.999999 
98.202599 13.182872 37.500000 0.000978 0.000978 0.999999 
97.774162 11.096517 37.500000 0.000978 0.000978 0.999999 
96.116196 13.311649 37.500000 0.000978 0.000978 0.999999 
92.511406 12.282577 37.500000 0.000978 0.000978 0.999999 
96.146507 10.247648 37.500000 0.000978 0.000978 0.999999 
94.651924 10.719518 37.500000 0.000978 0.000978 0.999999 
89.858833 10.901136 37.500000 0.000978 0.000978 0.999999 
91.360023 10.549648 37.500000 0.000978 0.000978 0.999999 
94.355515 10.343090 37.500000 0.000978 0.000978 0.999999 
84.214226 8.436084 37.500000 0.000978 0.000978 0.999999 
84.625618 8.851251 37.500000 0.000978 0.000978 0.999999 
78.479317 10.136103 37.500000 0.000978 0.000978 0.999999 
80.228035 9.410371 37.500000 0.000978 0.000978 0.999999 
79.482605 8.586913 37.500000 0.000978 0.000978 0.999999 
78.978378 10.026016 37.500000 0.000978 0.000978 0.999999 
77.372765 7.358972 37.500000 0.000978 0.000978 0.999999 
75.687027 8.418686 37.500000 0.000978 0.000978 0.999999 
