ply
format ascii 1.0
comment Created by CloudCompare v2.12.0 (Kyiv)
comment Created 2023-02-04T20:20:25
obj_info Generated by CloudCompare!
element vertex 810
property float x
property float y
property float z
property float nx
property float ny
property float nz
end_header
46.191326 -0.117901 27.500000 0.000978 0.000978 -0.999999 
15.313989 1.860697 27.500000 0.000978 0.000978 -0.999999 
14.062855 1.671006 27.500000 0.000978 0.000978 -0.999999 
13.615198 -2.435741 27.500000 0.000978 0.000978 -0.999999 
28.736347 -1.413936 27.500000 0.000978 0.000978 -0.999999 
24.721439 1.625525 27.500000 0.000978 0.000978 -0.999999 
20.744230 -0.748780 27.500000 0.000978 0.000978 -0.999999 
14.283457 0.607581 27.500000 0.000978 0.000978 -0.999999 
62.155655 -4.036036 27.500000 0.000978 0.000978 -0.999999 
63.780418 -4.035495 27.500000 0.000978 0.000978 -0.999999 
62.898987 -4.153977 27.500000 0.000978 0.000978 -0.999999 
63.912018 -5.130224 27.500000 0.000978 0.000978 -0.999999 
72.818054 -4.974067 27.500000 0.000978 0.000978 -0.999999 
99.194916 -4.652380 27.500000 0.000978 0.000978 -0.999999 
14.641489 -1.514031 27.500000 0.000978 0.000978 -0.999999 
9.514179 4.896147 37.823452 0.306995 0.163823 0.937505 
6.449421 4.004229 41.579769 0.834630 0.518824 0.184972 
7.883743 2.395705 39.868073 0.812710 0.239943 0.530971 
7.504694 1.109805 41.354534 0.962642 0.141986 0.230565 
7.310070 -1.522482 42.420181 0.978585 -0.205093 0.017579 
6.232165 -4.281236 41.591713 0.810648 -0.556089 0.183343 
6.234973 -5.291595 40.030018 0.660809 -0.563285 0.496027 
7.057979 -4.700355 39.536098 0.666912 -0.446279 0.596711 
8.209294 -3.840407 38.836170 0.611423 -0.282563 0.739135 
40.164505 -1.983777 37.500000 0.000978 0.000978 0.999999 
29.674028 -3.232725 37.500000 0.000978 0.000978 0.999999 
20.092848 -4.160189 37.500000 0.000978 0.000978 0.999999 
43.941807 -2.758633 37.500000 0.000978 0.000978 0.999999 
16.839468 -5.271395 37.500000 0.000978 0.000978 0.999999 
41.537586 -4.380101 37.500000 0.000978 0.000978 0.999999 
41.252296 -4.475815 37.500000 0.000978 0.000978 0.999999 
18.498522 -5.045969 37.500000 0.000978 0.000978 0.999999 
48.385902 -4.543405 37.500000 0.000978 0.000978 0.999999 
44.744888 -0.348754 37.500000 0.000978 0.000978 0.999999 
44.388962 0.393925 37.500000 0.000978 0.000978 0.999999 
49.140301 0.907535 37.500000 0.000978 0.000978 0.999999 
41.708866 1.173030 37.500000 0.000978 0.000978 0.999999 
35.830246 1.583668 37.500000 0.000978 0.000978 0.999999 
43.070267 2.463952 37.500000 0.000978 0.000978 0.999999 
29.200291 2.625123 37.500000 0.000978 0.000978 0.999999 
41.123634 3.951021 37.500000 0.000978 0.000978 0.999999 
52.363262 3.579610 37.500000 0.000978 0.000978 0.999999 
47.973022 4.187050 37.500000 0.000978 0.000978 0.999999 
50.985275 2.083243 37.500000 0.000978 0.000978 0.999999 
65.405449 4.966219 37.500000 0.000978 0.000978 0.999999 
63.238815 4.748662 37.500000 0.000978 0.000978 0.999999 
66.173782 -0.771603 37.500000 0.000978 0.000978 0.999999 
66.320061 -2.200179 37.500000 0.000978 0.000978 0.999999 
60.928810 2.448929 37.500000 0.000978 0.000978 0.999999 
59.445862 1.732695 37.500000 0.000978 0.000978 0.999999 
68.352448 -1.003321 37.500000 0.000978 0.000978 0.999999 
71.230705 0.083695 37.500000 0.000978 0.000978 0.999999 
72.890121 -0.536640 37.500000 0.000978 0.000978 0.999999 
75.554092 -1.766376 37.500000 0.000978 0.000978 0.999999 
56.406399 -1.446354 37.500000 0.000978 0.000978 0.999999 
101.790695 9.520694 37.500000 0.000978 0.000978 0.999999 
105.197495 6.734998 37.500000 0.000978 0.000978 0.999999 
102.410797 7.671918 37.500000 0.000978 0.000978 0.999999 
104.768272 0.658629 37.500000 0.000978 0.000978 0.999999 
101.660400 6.506599 37.500000 0.000978 0.000978 0.999999 
100.544868 7.990091 37.500000 0.000978 0.000978 0.999999 
107.186813 7.573949 37.500000 0.000978 0.000978 0.999999 
108.488396 8.946897 37.500000 0.000978 0.000978 0.999999 
110.884956 6.757810 37.500000 0.000978 0.000978 0.999999 
107.594986 3.164876 37.500000 0.000978 0.000978 0.999999 
107.088913 0.340887 37.500000 0.000978 0.000978 0.999999 
119.151482 -0.800808 37.500000 0.000978 0.000978 0.999999 
121.788239 -2.124582 37.500000 0.000978 0.000978 0.999999 
120.730026 -3.993925 37.500000 0.000978 0.000978 0.999999 
123.442886 -8.259475 37.500000 0.000978 0.000978 0.999999 
118.832237 -7.932470 37.500000 0.000978 0.000978 0.999999 
113.332680 -7.374665 37.500000 0.000978 0.000978 0.999999 
114.466301 -7.735472 37.500000 0.000978 0.000978 0.999999 
112.938995 -12.439796 37.500000 0.000978 0.000978 0.999999 
111.794136 -13.583488 37.500000 0.000978 0.000978 0.999999 
108.649315 -11.681602 37.500000 0.000978 0.000978 0.999999 
107.737938 -3.213891 37.500000 0.000978 0.000978 0.999999 
108.365540 -2.851223 37.500000 0.000978 0.000978 0.999999 
108.874649 -5.209381 37.500000 0.000978 0.000978 0.999999 
101.243362 -10.616575 37.500000 0.000978 0.000978 0.999999 
117.455795 10.932923 37.500000 0.000978 0.000978 0.999999 
114.969398 5.939325 37.500000 0.000978 0.000978 0.999999 
114.387268 9.107493 37.500000 0.000978 0.000978 0.999999 
113.132904 4.720248 37.500000 0.000978 0.000978 0.999999 
116.626305 2.521731 37.500000 0.000978 0.000978 0.999999 
121.136406 3.151821 37.500000 0.000978 0.000978 0.999999 
122.612175 2.769978 37.500000 0.000978 0.000978 0.999999 
120.751732 6.245237 37.500000 0.000978 0.000978 0.999999 
123.747360 6.086498 37.500000 0.000978 0.000978 0.999999 
122.169975 7.807552 37.500000 0.000978 0.000978 0.999999 
71.818253 5.273498 37.500000 0.000978 0.000978 0.999999 
75.523598 4.895813 37.500000 0.000978 0.000978 0.999999 
78.997856 2.276813 37.500000 0.000978 0.000978 0.999999 
81.393219 -3.669535 37.500000 0.000978 0.000978 0.999999 
81.766678 2.042237 37.500000 0.000978 0.000978 0.999999 
75.023026 1.745540 37.500000 0.000978 0.000978 0.999999 
74.543633 -4.256786 37.500000 0.000978 0.000978 0.999999 
71.779221 -4.141036 37.500000 0.000978 0.000978 0.999999 
27.796066 1.858757 37.500000 0.000978 0.000978 0.999999 
16.622473 2.753073 37.500000 0.000978 0.000978 0.999999 
26.863768 -1.835795 37.500000 0.000978 0.000978 0.999999 
22.835831 -1.500919 37.500000 0.000978 0.000978 0.999999 
18.849125 0.611805 37.500000 0.000978 0.000978 0.999999 
20.423655 1.104657 37.500000 0.000978 0.000978 0.999999 
12.188195 -3.258098 37.500000 0.000978 0.000978 0.999999 
12.477557 -1.407233 37.500000 0.000978 0.000978 0.999999 
86.969009 -6.973267 37.500000 0.000978 0.000978 0.999999 
88.764870 -8.404902 37.500000 0.000978 0.000978 0.999999 
84.065407 5.787133 37.500000 0.000978 0.000978 0.999999 
93.845268 -5.177734 37.500000 0.000978 0.000978 0.999999 
90.294937 -4.403153 37.500000 0.000978 0.000978 0.999999 
89.307793 -4.783634 37.500000 0.000978 0.000978 0.999999 
84.001549 -0.862198 37.500000 0.000978 0.000978 0.999999 
92.212540 5.225927 37.500000 0.000978 0.000978 0.999999 
91.771545 4.045482 37.500000 0.000978 0.000978 0.999999 
91.464256 2.525791 37.500000 0.000978 0.000978 0.999999 
94.139359 7.848421 37.500000 0.000978 0.000978 0.999999 
91.475548 -0.206315 37.500000 0.000978 0.000978 0.999999 
96.325043 2.486128 37.500000 0.000978 0.000978 0.999999 
93.557953 3.438166 37.500000 0.000978 0.000978 0.999999 
96.014076 -2.649373 37.500000 0.000978 0.000978 0.999999 
96.099586 -6.942538 37.500000 0.000978 0.000978 0.999999 
99.929611 3.237567 37.500000 0.000978 0.000978 0.999999 
101.651566 -7.399337 37.500000 0.000978 0.000978 0.999999 
99.001526 7.567673 37.500000 0.000978 0.000978 0.999999 
101.901001 -5.558778 37.500000 0.000978 0.000978 0.999999 
124.836441 0.409289 37.500000 0.000978 0.000978 0.999999 
111.976089 12.424059 37.500000 0.000978 0.000978 0.999999 
8.499295 5.303301 27.652374 0.000978 0.999999 0.000978 
8.902245 5.303301 37.625862 0.000978 0.999999 0.000978 
47.308807 5.303301 32.087486 0.000978 0.999999 0.000978 
21.308975 5.303301 36.446030 0.000978 0.999999 0.000978 
40.579559 5.303301 31.903788 0.000978 0.999999 0.000978 
21.324863 5.303301 33.421398 0.000978 0.999999 0.000978 
20.998184 5.303301 34.187164 0.000978 0.999999 0.000978 
27.552973 5.303301 33.617237 0.000978 0.999999 0.000978 
30.111717 5.303301 29.223394 0.000978 0.999999 0.000978 
43.482849 5.303301 32.718872 0.000978 0.999999 0.000978 
29.156073 5.303301 31.240820 0.000978 0.999999 0.000978 
24.953117 5.303301 35.245621 0.000978 0.999999 0.000978 
42.286144 5.303301 31.067678 0.000978 0.999999 0.000978 
30.961523 5.303301 31.151375 0.000978 0.999999 0.000978 
50.519691 5.303301 33.642029 0.000978 0.999999 0.000978 
33.407623 5.303301 31.103994 0.000978 0.999999 0.000978 
19.559189 5.303301 29.300098 0.000978 0.999999 0.000978 
26.750122 5.303301 35.825146 0.000978 0.999999 0.000978 
51.454697 5.303301 33.867447 0.000978 0.999999 0.000978 
58.018238 5.303301 34.913738 0.000978 0.999999 0.000978 
33.843147 5.303301 35.579685 0.000978 0.999999 0.000978 
55.473209 5.303301 35.964169 0.000978 0.999999 0.000978 
54.169411 5.303301 34.403511 0.000978 0.999999 0.000978 
23.527172 5.303301 36.873428 0.000978 0.999999 0.000978 
66.045692 5.303301 35.084900 0.000978 0.999999 0.000978 
28.044872 5.303301 36.581238 0.000978 0.999999 0.000978 
38.554813 5.303301 36.530891 0.000978 0.999999 0.000978 
50.314445 5.303301 36.829994 0.000978 0.999999 0.000978 
82.678467 5.303301 31.784849 0.000978 0.999999 0.000978 
76.676178 5.303301 32.146400 0.000978 0.999999 0.000978 
86.710686 5.303301 31.125782 0.000978 0.999999 0.000978 
71.336632 5.303301 32.147713 0.000978 0.999999 0.000978 
94.869431 5.303301 29.594822 0.000978 0.999999 0.000978 
79.993225 5.303301 30.908754 0.000978 0.999999 0.000978 
47.519855 5.303301 27.786581 0.000978 0.999999 0.000978 
56.355686 5.303301 30.393225 0.000978 0.999999 0.000978 
50.419334 5.303301 29.987251 0.000978 0.999999 0.000978 
41.478897 5.303301 28.435919 0.000978 0.999999 0.000978 
49.401527 5.303301 28.575089 0.000978 0.999999 0.000978 
76.812332 5.303301 28.553370 0.000978 0.999999 0.000978 
36.778744 5.303301 29.736130 0.000978 0.999999 0.000978 
48.696747 5.303301 30.243156 0.000978 0.999999 0.000978 
63.403370 5.303301 28.769302 0.000978 0.999999 0.000978 
79.156174 5.303301 30.354258 0.000978 0.999999 0.000978 
64.954994 5.303301 30.435894 0.000978 0.999999 0.000978 
90.309776 5.303301 27.728237 0.000978 0.999999 0.000978 
54.412640 5.303301 27.680689 0.000978 0.999999 0.000978 
-2.667930 -2.019699 24.966486 0.797530 0.603278 0.001368 
-2.626220 -2.074057 26.703119 0.784741 0.619822 0.001374 
-2.587013 -2.125152 25.414085 0.772605 0.634886 0.001377 
-2.066270 -2.632195 26.906179 0.616789 0.787127 0.001374 
-2.025717 -2.663313 23.178236 0.606331 0.795211 0.001369 
-1.815785 -2.824399 50.954937 0.541234 0.840871 0.001350 
-1.721269 -2.896924 20.258467 0.510941 0.859615 0.001341 
-1.592644 -2.962127 3.136590 0.472993 0.881065 0.001325 
-1.198446 -3.125409 51.478951 0.357624 0.933865 0.001264 
-1.257323 -3.101021 37.855854 0.376001 0.926619 0.001275 
-0.825911 -3.266267 12.762144 0.246171 0.969226 0.001189 
-0.145150 -3.355891 12.486512 0.043880 0.999036 0.001020 
0.190868 -3.349872 26.638418 -0.056668 0.998393 0.001030 
0.107864 -3.360800 26.208689 -0.031266 0.999511 0.001009 
0.460527 -3.314371 42.842258 -0.137718 0.990471 0.001102 
1.130068 -3.153732 34.572483 -0.338631 0.940919 0.001250 
1.412071 -3.036922 22.236881 -0.421606 0.906778 0.001297 
1.352331 -3.061667 57.146843 -0.403862 0.914819 0.001290 
1.700723 -2.912689 32.862118 -0.504619 0.863341 0.001339 
1.726374 -2.893007 22.187551 -0.512919 0.858436 0.001339 
1.956716 -2.716259 47.516273 -0.584843 0.811146 0.001363 
2.368364 -2.400390 54.862793 -0.702951 0.711237 0.001381 
2.532527 -2.196160 21.586361 -0.755050 0.655665 0.001380 
2.840682 -1.794565 47.843014 -0.844879 0.534955 0.001347 
2.440801 -2.315699 57.061478 -0.724826 0.688930 0.001381 
2.923828 -1.685106 36.882973 -0.865851 0.500299 0.001334 
3.041008 -1.402206 43.373657 -0.907768 0.419470 0.001299 
3.340313 -0.263475 15.120453 -0.996878 0.078950 0.001053 
3.367992 -0.053233 24.530134 -0.999857 0.016879 0.000993 
3.355994 0.144364 43.375221 -0.999127 -0.041758 0.001018 
3.368072 0.052627 10.169273 -0.999889 -0.014865 0.000991 
3.295788 0.601676 26.311840 -0.983522 -0.180786 0.001137 
3.116442 1.220093 1.988985 -0.930643 -0.365926 0.001266 
3.133716 1.178391 18.899456 -0.936173 -0.351537 0.001260 
2.989559 1.526417 49.741604 -0.889912 -0.456129 0.001314 
3.009335 1.478673 46.416122 -0.897290 -0.441440 0.001310 
2.901313 1.715549 14.673438 -0.860313 -0.509765 0.001338 
2.760978 1.898437 6.936972 -0.824239 -0.566240 0.001358 
2.533732 2.194589 35.733673 -0.756234 -0.654300 0.001377 
2.043224 2.649879 27.765726 -0.610705 -0.791857 0.001372 
2.171717 2.551282 37.545570 -0.648407 -0.761293 0.001377 
1.959227 2.714332 25.548683 -0.584843 -0.811146 0.001363 
1.635576 2.944344 17.820271 -0.485642 -0.874156 0.001331 
1.352646 3.061537 36.334583 -0.403862 -0.914819 0.001290 
0.723419 3.279760 8.432064 -0.215818 -0.976433 0.001167 
0.318132 3.333117 37.591263 -0.094759 -0.995500 0.001065 
0.041811 3.369496 38.913994 -0.010880 -0.999940 0.000989 
-0.039343 3.369820 46.326416 0.012857 -0.999917 0.000989 
-0.430377 3.318340 11.019219 0.130369 -0.991465 0.001096 
-0.755437 3.275545 38.708981 0.226229 -0.974073 0.001172 
-0.725762 3.279452 11.065219 0.218041 -0.975939 0.001166 
-0.880969 3.256912 16.733927 0.262509 -0.964929 0.001199 
-1.491561 3.003997 7.830814 0.444588 -0.895734 0.001311 
-1.683351 2.924555 11.776588 0.498295 -0.867007 0.001336 
-1.980138 2.698287 22.276358 0.592312 -0.805708 0.001368 
-2.205439 2.525407 29.733997 0.657235 -0.753685 0.001378 
-2.451626 2.301593 31.192129 0.728889 -0.684630 0.001383 
-2.750167 1.912526 30.698021 0.821210 -0.570625 0.001362 
-2.953052 1.614552 26.886002 0.877641 -0.479317 0.001328 
-3.170807 1.088845 6.498294 0.945912 -0.324419 0.001243 
-3.134802 1.175770 55.939423 0.936173 -0.351537 0.001260 
-3.265974 0.828138 42.175308 0.969226 -0.246171 0.001189 
-3.370106 0.037173 37.477291 0.999941 -0.010858 0.000987 
-3.303373 -0.544061 1.750891 0.986605 0.163122 0.001125 
-3.286745 -0.670365 33.039795 0.979863 0.199666 0.001154 
-3.102720 -1.253223 5.244219 0.926978 0.375114 0.001272 
-2.988224 -1.529640 53.376724 0.889912 0.456129 0.001314 
-3.028738 -1.431829 40.917465 0.903843 0.427862 0.001300 
30.861488 -0.307014 29.986692 0.969226 0.246171 0.001189 
18.111540 -0.679813 29.732401 -0.836802 0.547504 0.001352 
18.295454 -0.194558 36.666542 -0.987489 0.157685 0.001118 
17.984232 0.845726 29.956112 -0.734219 -0.678911 0.001383 
17.705704 1.075140 28.813004 -0.507781 -0.861485 0.001340 
15.952320 -0.537566 30.947819 0.900850 0.434129 0.001304 
23.188847 -0.539907 34.127060 -0.900357 0.435151 0.001307 
23.315376 0.043227 32.270287 -0.999443 -0.033348 0.001011 
22.125015 1.242900 28.593393 -0.041758 -0.999127 0.001018 
20.986708 -0.620580 36.000877 0.867668 0.497143 0.001333 
11.983592 1.238536 37.389587 0.069985 -0.997548 0.001045 
13.289189 -0.249905 32.150665 -0.979409 0.201881 0.001154 
13.046816 -0.766091 32.059944 -0.787127 0.616789 0.001374 
10.871116 0.334136 31.476017 0.963362 -0.268202 0.001203 
28.195551 -0.523722 29.489273 -0.906315 0.422600 0.001300 
28.300175 0.158705 28.994379 -0.991782 -0.127937 0.001093 
25.921854 -0.464013 31.287239 0.926978 0.375114 0.001272 
5.755000 -5.303301 24.661133 0.000978 -0.999999 0.000978 
5.935012 -5.303301 34.990498 0.000978 -0.999999 0.000978 
6.478843 -5.303301 27.175957 0.000978 -0.999999 0.000978 
6.714128 -5.303301 30.716511 0.000978 -0.999999 0.000978 
6.905475 -5.303301 30.370638 0.000978 -0.999999 0.000978 
8.297916 -5.303301 33.857616 0.000978 -0.999999 0.000978 
9.046621 -5.303301 31.872326 0.000978 -0.999999 0.000978 
9.718531 -5.303301 32.575565 0.000978 -0.999999 0.000978 
10.397116 -5.303301 37.207142 0.000978 -0.999999 0.000978 
10.888434 -5.303301 30.615831 0.000978 -0.999999 0.000978 
14.193031 -5.303301 33.046337 0.000978 -0.999999 0.000978 
23.199306 -5.303301 33.956745 0.000978 -0.999999 0.000978 
55.224442 -5.303301 33.425209 0.000978 -0.999999 0.000978 
24.099747 -5.303301 36.290867 0.000978 -0.999999 0.000978 
18.729767 -5.303301 34.339340 0.000978 -0.999999 0.000978 
44.079086 -5.303301 33.695271 0.000978 -0.999999 0.000978 
47.195137 -5.303301 31.462378 0.000978 -0.999999 0.000978 
17.929579 -5.303301 28.360979 0.000978 -0.999999 0.000978 
18.707630 -5.303301 33.284981 0.000978 -0.999999 0.000978 
14.409883 -5.303301 30.542089 0.000978 -0.999999 0.000978 
65.511345 -5.303301 32.497322 0.000978 -0.999999 0.000978 
58.561234 -5.303301 33.230881 0.000978 -0.999999 0.000978 
14.332114 -5.303301 37.061119 0.000978 -0.999999 0.000978 
19.620001 -5.303301 32.145405 0.000978 -0.999999 0.000978 
29.841578 -5.303301 32.127682 0.000978 -0.999999 0.000978 
16.615530 -5.303301 28.136604 0.000978 -0.999999 0.000978 
33.754944 -5.303301 31.912689 0.000978 -0.999999 0.000978 
58.007416 -5.303301 28.641096 0.000978 -0.999999 0.000978 
87.556618 -5.303301 29.344347 0.000978 -0.999999 0.000978 
64.764595 -5.303301 29.726576 0.000978 -0.999999 0.000978 
41.172935 -5.303301 30.025465 0.000978 -0.999999 0.000978 
30.850483 -5.303301 28.447819 0.000978 -0.999999 0.000978 
57.945389 -5.303301 29.243172 0.000978 -0.999999 0.000978 
49.373550 -5.303301 28.850971 0.000978 -0.999999 0.000978 
65.408798 -5.303301 27.792492 0.000978 -0.999999 0.000978 
73.660706 -5.303301 30.660530 0.000978 -0.999999 0.000978 
64.388847 -5.303301 30.961008 0.000978 -0.999999 0.000978 
58.158497 -5.303301 28.181761 0.000978 -0.999999 0.000978 
85.569084 -5.303301 29.399784 0.000978 -0.999999 0.000978 
20.645676 -5.303301 27.892242 0.000978 -0.999999 0.000978 
77.740921 -5.303301 31.397938 0.000978 -0.999999 0.000978 
75.201439 -5.303301 31.703634 0.000978 -0.999999 0.000978 
70.652573 -5.303301 32.220543 0.000978 -0.999999 0.000978 
101.404060 -5.303301 29.807161 0.000978 -0.999999 0.000978 
100.748848 -5.303301 32.326015 0.000978 -0.999999 0.000978 
87.575447 -5.303301 32.216198 0.000978 -0.999999 0.000978 
60.005272 -5.303301 36.987549 0.000978 -0.999999 0.000978 
41.917519 -5.303301 35.379158 0.000978 -0.999999 0.000978 
59.546528 -5.303301 36.922379 0.000978 -0.999999 0.000978 
52.657650 -5.303301 33.945381 0.000978 -0.999999 0.000978 
38.598282 -5.303301 35.111191 0.000978 -0.999999 0.000978 
52.038860 -5.303301 36.385941 0.000978 -0.999999 0.000978 
65.239212 -5.303301 36.654427 0.000978 -0.999999 0.000978 
27.518532 -5.303301 36.718014 0.000978 -0.999999 0.000978 
95.976112 2.803301 32.490341 0.000978 -0.999999 0.000978 
91.768318 2.803301 31.875399 0.000978 -0.999999 0.000978 
82.021156 2.803301 30.232744 0.000978 -0.999999 0.000978 
83.587273 2.803301 28.678844 0.000978 -0.999999 0.000978 
94.735657 2.803301 29.632061 0.000978 -0.999999 0.000978 
93.290756 2.803301 28.372776 0.000978 -0.999999 0.000978 
99.556305 2.803301 28.170189 0.000978 -0.999999 0.000978 
75.688789 2.803301 30.536846 0.000978 -0.999999 0.000978 
68.070625 2.803301 31.816025 0.000978 -0.999999 0.000978 
86.119049 -2.803301 30.940567 0.000978 0.999999 0.000978 
100.647644 -2.803301 30.158222 0.000978 0.999999 0.000978 
82.958191 -2.803301 29.901678 0.000978 0.999999 0.000978 
93.301575 -2.803301 28.891159 0.000978 0.999999 0.000978 
97.330330 -2.803301 32.415836 0.000978 0.999999 0.000978 
102.305748 -2.803301 31.300383 0.000978 0.999999 0.000978 
85.911049 -2.803301 27.820156 0.000978 0.999999 0.000978 
100.780830 -3.679784 27.777910 0.424733 0.001299 -0.905318 
100.260048 -4.112327 27.583689 0.232258 0.001179 -0.972654 
102.374367 -4.446016 30.756033 0.999999 0.000978 0.000978 
101.092163 4.851105 27.939636 0.536176 0.001351 -0.844105 
102.320007 3.058572 29.837116 0.988615 0.001115 -0.150466 
78.256310 -3.118216 33.307484 -0.883337 0.468736 0.001320 
78.187065 -2.080575 36.804916 -0.817758 -0.575560 0.001361 
76.768578 3.444564 29.837349 0.606331 -0.795211 0.001369 
78.248299 3.133879 36.834431 -0.874782 -0.484515 0.001327 
73.467560 -2.803301 30.736057 0.000978 0.999999 0.000978 
67.835266 -2.803301 31.041306 0.000978 0.999999 0.000978 
82.274620 -2.533848 34.160149 -0.663079 0.001379 0.748548 
81.263222 -3.992269 33.911804 0.240031 -0.001182 0.970765 
80.433594 0.671888 35.232780 0.978191 -0.001160 -0.207706 
81.355286 3.566540 36.107544 0.157685 -0.001118 -0.987489 
82.252167 1.151859 35.858307 -0.642481 0.001376 -0.766300 
82.637154 -6.241888 35.208088 -0.982547 0.001141 -0.186011 
73.816422 1.473435 33.915947 -0.251790 0.001193 0.967781 
73.290092 -4.183264 33.903641 0.218041 -0.001166 0.975939 
72.864899 2.937289 35.899937 0.595391 -0.001369 -0.803435 
73.309258 3.309191 36.102055 0.199666 -0.001154 -0.979863 
73.788185 0.240579 36.092560 -0.226747 0.001175 -0.973953 
74.483978 2.559709 35.595852 -0.846861 0.001346 -0.531813 
67.374367 -1.466170 30.306305 0.999999 0.000978 0.000978 
67.374367 2.101761 31.393744 0.999999 0.000978 0.000978 
104.548973 -5.711415 33.313381 0.740750 -0.671779 0.001379 
104.929062 -5.408765 36.840549 0.485642 -0.874156 0.001331 
118.659798 -4.306969 34.403603 -0.422600 -0.906315 0.001300 
118.409096 -4.206529 37.413853 -0.254023 -0.967197 0.001193 
116.663269 -5.070256 36.155312 0.918878 -0.394539 0.001285 
119.798027 5.398674 36.795864 -0.471891 0.881656 0.001322 
120.077553 5.603654 32.564087 -0.663079 0.748548 0.001379 
120.226662 5.745325 35.198200 -0.760132 0.649768 0.001380 
107.842079 6.634784 37.104641 -0.755050 -0.655665 0.001380 
106.592270 7.143013 33.131889 0.083483 -0.996509 0.001057 
105.814293 6.840003 35.929459 0.606331 -0.795211 0.001369 
105.363976 6.282189 34.391476 0.907768 -0.419470 0.001299 
107.971550 4.847335 36.029060 -0.840077 0.542465 0.001353 
109.016685 2.976362 35.343235 0.748548 -0.663079 0.001379 
109.700623 3.607530 33.763885 0.594083 -0.804402 0.001366 
115.694702 2.996102 32.504993 -0.743362 -0.668888 0.001379 
110.894073 -4.223279 36.602005 0.330406 0.943838 0.001247 
109.025627 -2.968415 37.196686 0.748548 0.663079 0.001379 
108.258469 -1.724188 37.378864 0.921899 0.387428 0.001279 
104.366272 11.823199 37.303185 -0.245605 0.969369 0.001186 
100.090500 10.787762 33.719154 -0.229498 0.973308 0.001177 
105.668480 12.228840 34.209965 -0.481358 0.876523 0.001326 
107.072060 12.844405 37.358688 -0.382163 0.924094 0.001278 
110.525604 13.776062 34.179623 -0.133100 0.991102 0.001100 
110.574600 13.784236 34.686760 -0.130369 0.991465 0.001096 
116.363968 13.318741 36.926197 0.286119 0.958193 0.001218 
119.976074 11.628222 33.608624 0.547504 0.836802 0.001352 
124.436478 6.900334 33.051228 0.867668 0.497143 0.001333 
126.266861 -0.938259 33.189854 0.997710 -0.067624 0.001040 
126.266861 -1.191120 37.038818 0.996331 -0.085581 0.001057 
126.127380 -2.282454 36.878792 0.986605 -0.163122 0.001125 
125.387581 -5.142774 36.862961 0.930303 -0.366791 0.001269 
124.031303 -7.649053 34.924480 0.835989 -0.548745 0.001355 
122.806602 -9.179702 34.985786 0.749918 -0.661530 0.001381 
122.337982 -9.688790 35.918503 0.716707 -0.697373 0.001381 
118.062584 -12.735534 34.756809 0.409130 -0.912475 0.001291 
117.493378 -12.930966 36.310173 0.368984 -0.929435 0.001268 
115.050323 -13.718300 35.626278 0.191268 -0.981537 0.001145 
112.533142 -13.926995 33.810047 0.010880 -0.999940 0.000989 
109.082306 -13.535298 35.471573 -0.237255 -0.971447 0.001180 
104.416924 -11.835465 33.157169 -0.245605 -0.969369 0.001186 
100.633232 -10.919191 34.328899 -0.231726 -0.972780 0.001176 
81.962021 -7.155784 33.061852 -0.160219 -0.987081 0.001120 
75.463013 -6.268057 33.005428 -0.130653 -0.991428 0.001098 
72.452766 -5.808222 33.720680 -0.118545 -0.992948 0.001088 
69.805435 -5.511534 34.279633 -0.106419 -0.994321 0.001075 
89.200768 -8.544766 36.203918 -0.188635 -0.982047 0.001143 
90.525444 -8.808282 36.576054 -0.193909 -0.981019 0.001147 
91.850166 -9.071808 34.422596 -0.199215 -0.979955 0.001152 
86.663536 -8.040037 32.997631 -0.178585 -0.983924 0.001137 
72.656906 -5.930457 37.402885 -0.118545 -0.992948 0.001088 
78.414650 6.636809 33.555599 -0.145143 0.989410 0.001108 
75.881958 6.258518 35.997330 -0.133100 0.991102 0.001100 
76.255623 6.361181 36.854065 -0.135556 0.990769 0.001102 
69.269341 5.453200 35.914276 -0.104070 0.994569 0.001073 
70.543503 5.591897 33.922241 -0.109010 0.994040 0.001079 
93.835312 9.466710 35.555424 -0.207235 0.978290 0.001158 
88.402626 8.385993 34.104572 -0.186011 0.982547 0.001141 
97.539909 10.203661 35.378757 -0.220763 0.975327 0.001168 
90.882225 8.879256 36.627254 -0.194346 0.980932 0.001150 
86.186646 7.945171 36.060787 -0.175987 0.984392 0.001135 
76.473534 6.373549 33.330368 -0.135556 0.990769 0.001102 
77.529793 -0.979538 35.474789 -0.157685 0.987489 0.001118 
77.950630 -0.807507 32.627121 -0.581753 0.813364 0.001362 
78.366104 -0.062778 34.370945 -0.997991 0.063348 0.001038 
71.895836 -2.453612 32.500000 0.000978 0.000978 -0.999999 
69.613800 -0.264751 32.500000 0.000978 0.000978 -0.999999 
67.726578 -1.120749 32.500000 0.000978 0.000978 -0.999999 
75.015007 1.403729 32.500000 0.000978 0.000978 -0.999999 
78.463860 1.346280 32.500000 0.000978 0.000978 -0.999999 
86.142906 1.811946 32.500000 0.000978 0.000978 -0.999999 
88.245850 -0.707128 32.500000 0.000978 0.000978 -0.999999 
94.538902 0.201452 32.500000 0.000978 0.000978 -0.999999 
99.167618 -1.333745 32.500000 0.000978 0.000978 -0.999999 
84.983170 -0.683168 32.500000 0.000978 0.000978 -0.999999 
106.361244 1.014452 32.500000 0.000978 0.000978 -0.999999 
81.052078 5.870437 32.500000 0.000978 0.000978 -0.999999 
75.320190 6.086057 32.500000 0.000978 0.000978 -0.999999 
89.109901 7.203816 32.500000 0.000978 0.000978 -0.999999 
89.934952 7.469218 32.500000 0.000978 0.000978 -0.999999 
102.817368 7.587243 32.500000 0.000978 0.000978 -0.999999 
107.115074 11.282989 32.500000 0.000978 0.000978 -0.999999 
113.726624 10.464068 32.500000 0.000978 0.000978 -0.999999 
112.106941 5.429056 32.500000 0.000978 0.000978 -0.999999 
108.359337 6.354707 32.500000 0.000978 0.000978 -0.999999 
111.022026 11.708283 32.500000 0.000978 0.000978 -0.999999 
104.866577 3.635108 32.500000 0.000978 0.000978 -0.999999 
118.187447 11.906361 32.500000 0.000978 0.000978 -0.999999 
124.112770 6.908060 32.500000 0.000978 0.000978 -0.999999 
123.922844 3.515857 32.500000 0.000978 0.000978 -0.999999 
124.567795 -1.271653 32.500000 0.000978 0.000978 -0.999999 
121.026741 0.725247 32.500000 0.000978 0.000978 -0.999999 
122.635460 2.427497 32.500000 0.000978 0.000978 -0.999999 
124.118629 2.174132 32.500000 0.000978 0.000978 -0.999999 
112.937012 4.483318 32.500000 0.000978 0.000978 -0.999999 
115.604385 8.751574 32.500000 0.000978 0.000978 -0.999999 
122.688652 -5.241348 32.500000 0.000978 0.000978 -0.999999 
120.507401 -9.775797 32.500000 0.000978 0.000978 -0.999999 
116.942879 -11.543528 32.500000 0.000978 0.000978 -0.999999 
113.243553 -9.080129 32.500000 0.000978 0.000978 -0.999999 
115.067589 -7.804592 32.500000 0.000978 0.000978 -0.999999 
108.435066 -10.950731 32.500000 0.000978 0.000978 -0.999999 
107.411308 -7.645396 32.500000 0.000978 0.000978 -0.999999 
110.145538 -7.218151 32.500000 0.000978 0.000978 -0.999999 
101.995140 -10.732225 32.500000 0.000978 0.000978 -0.999999 
90.919876 -8.421926 32.500000 0.000978 0.000978 -0.999999 
92.289963 -7.712268 32.500000 0.000978 0.000978 -0.999999 
81.195175 -5.834657 32.500000 0.000978 0.000978 -0.999999 
77.456139 -6.187409 32.500000 0.000978 0.000978 -0.999999 
103.481674 -5.238237 32.500000 0.000978 0.000978 -0.999999 
81.831207 -0.900620 32.500000 0.000978 0.000978 -0.999999 
78.595055 -1.460764 32.500000 0.000978 0.000978 -0.999999 
77.538116 -1.091888 32.500000 0.000978 0.000978 -0.999999 
120.322525 -2.354686 32.500000 0.000978 0.000978 -0.999999 
110.428604 11.458620 32.500000 0.000978 0.000978 -0.999999 
104.390053 7.357095 32.500000 0.000978 0.000978 -0.999999 
108.211800 -1.712358 32.500000 0.000978 0.000978 -0.999999 
107.835571 -4.333086 32.500000 0.000978 0.000978 0.999999 
105.316376 -1.888533 32.500000 0.000978 0.000978 0.999999 
104.156441 -0.792695 32.500000 0.000978 0.000978 0.999999 
99.518372 0.199021 32.500000 0.000978 0.000978 0.999999 
90.049461 0.122616 32.500000 0.000978 0.000978 0.999999 
98.644676 -0.997215 32.500000 0.000978 0.000978 0.999999 
96.613495 0.325588 32.500000 0.000978 0.000978 0.999999 
80.578651 0.482815 32.500000 0.000978 0.000978 0.999999 
79.089699 0.161283 32.500000 0.000978 0.000978 0.999999 
108.131561 1.565145 32.500000 0.000978 0.000978 0.999999 
109.794312 7.006563 32.500000 0.000978 0.000978 0.999999 
111.846329 12.975571 32.500000 0.000978 0.000978 0.999999 
110.641052 14.108234 32.500000 0.000978 0.000978 0.999999 
113.034096 14.458583 32.500000 0.000978 0.000978 0.999999 
113.726784 5.589401 32.500000 0.000978 0.000978 0.999999 
116.801811 11.602620 32.500000 0.000978 0.000978 0.999999 
125.927032 1.419724 32.500000 0.000978 0.000978 0.999999 
122.988762 3.361470 32.500000 0.000978 0.000978 0.999999 
124.249588 6.262284 32.500000 0.000978 0.000978 0.999999 
123.626266 8.392437 32.500000 0.000978 0.000978 0.999999 
122.340958 12.447909 32.500000 0.000978 0.000978 0.999999 
119.562370 13.030527 32.500000 0.000978 0.000978 0.999999 
123.086945 0.471262 32.500000 0.000978 0.000978 0.999999 
122.689964 -2.779097 32.500000 0.000978 0.000978 0.999999 
118.022125 -2.417094 32.500000 0.000978 0.000978 0.999999 
116.063713 -4.157876 32.500000 0.000978 0.000978 0.999999 
107.796135 -7.409880 32.500000 0.000978 0.000978 0.999999 
109.417305 -12.194542 32.500000 0.000978 0.000978 0.999999 
107.882744 -15.385354 32.500000 0.000978 0.000978 0.999999 
105.982101 -9.258495 32.500000 0.000978 0.000978 0.999999 
104.115654 8.763735 32.500000 0.000978 0.000978 0.999999 
97.425964 5.830821 32.500000 0.000978 0.000978 0.999999 
105.615128 8.950181 32.500000 0.000978 0.000978 0.999999 
108.967926 13.062337 32.500000 0.000978 0.000978 0.999999 
126.975334 -7.059728 32.500000 0.000978 0.000978 0.999999 
122.014221 -4.299511 32.500000 0.000978 0.000978 0.999999 
124.481491 -6.804396 32.500000 0.000978 0.000978 0.999999 
124.322212 -7.843142 32.500000 0.000978 0.000978 0.999999 
121.042923 -7.957253 32.500000 0.000978 0.000978 0.999999 
121.819901 -10.053466 32.500000 0.000978 0.000978 0.999999 
121.755127 -12.611241 32.500000 0.000978 0.000978 0.999999 
118.590736 -14.660920 32.500000 0.000978 0.000978 0.999999 
117.624695 -13.782401 32.500000 0.000978 0.000978 0.999999 
116.472099 -11.694456 32.500000 0.000978 0.000978 0.999999 
112.788719 -4.923499 32.500000 0.000978 0.000978 0.999999 
101.642197 -11.100006 32.500000 0.000978 0.000978 0.999999 
102.548126 -4.182067 32.500000 0.000978 0.000978 0.999999 
73.737053 1.454110 32.500000 0.000978 0.000978 0.999999 
71.157326 0.426142 32.500000 0.000978 0.000978 0.999999 
70.926437 -0.332535 32.500000 0.000978 0.000978 0.999999 
72.854042 -1.346173 32.500000 0.000978 0.000978 0.999999 
96.114204 -2.498045 32.500000 0.000978 0.000978 0.999999 
87.549957 -1.439620 32.500000 0.000978 0.000978 0.999999 
80.468529 2.795916 32.500000 0.000978 0.000978 0.999999 
99.071854 -5.622802 32.500000 0.000978 0.000978 0.999999 
98.947021 -8.086087 32.500000 0.000978 0.000978 0.999999 
107.268211 -4.253342 30.000000 0.000978 0.000978 -0.999999 
105.880920 -5.229983 30.000000 0.000978 0.000978 -0.999999 
112.800514 -8.428382 30.000000 0.000978 0.000978 -0.999999 
115.421883 -10.297661 30.000000 0.000978 0.000978 -0.999999 
109.071205 -6.586555 30.000000 0.000978 0.000978 -0.999999 
111.255974 -9.411850 30.000000 0.000978 0.000978 -0.999999 
108.363289 -10.213568 30.000000 0.000978 0.000978 -0.999999 
106.013542 -13.164549 30.000000 0.000978 0.000978 -0.999999 
100.750908 -10.459199 30.000000 0.000978 0.000978 -0.999999 
103.314529 -6.715200 30.000000 0.000978 0.000978 -0.999999 
104.052544 -5.374653 30.000000 0.000978 0.000978 -0.999999 
104.256920 -4.388916 30.000000 0.000978 0.000978 -0.999999 
116.179817 -4.886488 30.000000 0.000978 0.000978 -0.999999 
121.483734 0.762839 30.000000 0.000978 0.000978 -0.999999 
125.208015 0.885975 30.000000 0.000978 0.000978 -0.999999 
119.627167 -2.091974 30.000000 0.000978 0.000978 -0.999999 
122.366653 -3.970558 30.000000 0.000978 0.000978 -0.999999 
120.171227 -5.365487 30.000000 0.000978 0.000978 -0.999999 
120.979401 -10.149804 30.000000 0.000978 0.000978 -0.999999 
116.707336 -12.201278 30.000000 0.000978 0.000978 -0.999999 
114.925507 11.814454 30.000000 0.000978 0.000978 -0.999999 
114.256721 6.481260 30.000000 0.000978 0.000978 -0.999999 
115.268646 13.310072 30.000000 0.000978 0.000978 -0.999999 
115.976738 15.453395 30.000000 0.000978 0.000978 -0.999999 
118.526176 13.361628 30.000000 0.000978 0.000978 -0.999999 
119.896645 10.013785 30.000000 0.000978 0.000978 -0.999999 
121.565430 8.235416 30.000000 0.000978 0.000978 -0.999999 
123.681786 7.794580 30.000000 0.000978 0.000978 -0.999999 
124.914459 4.047480 30.000000 0.000978 0.000978 -0.999999 
119.636292 2.927152 30.000000 0.000978 0.000978 -0.999999 
121.318825 2.042674 30.000000 0.000978 0.000978 -0.999999 
112.337341 10.115358 30.000000 0.000978 0.000978 -0.999999 
110.020226 9.067177 30.000000 0.000978 0.000978 -0.999999 
110.479752 15.781319 30.000000 0.000978 0.000978 -0.999999 
108.728745 15.120814 30.000000 0.000978 0.000978 -0.999999 
107.039612 10.142483 30.000000 0.000978 0.000978 -0.999999 
106.802048 3.543415 30.000000 0.000978 0.000978 -0.999999 
107.607765 1.057345 30.000000 0.000978 0.000978 -0.999999 
102.418961 4.171735 30.000000 0.000978 0.000978 -0.999999 
101.493988 8.750080 30.000000 0.000978 0.000978 -0.999999 
100.795174 10.700100 30.000000 0.000978 0.000978 -0.999999 
104.779549 1.403967 30.000000 0.000978 0.000978 -0.999999 
107.550293 -1.186625 30.000000 0.000978 0.000978 -0.999999 
105.716309 13.150840 30.000000 0.000978 0.000978 -0.999999 
104.799942 11.581003 30.000000 0.000978 0.000978 -0.999999 
118.846489 -4.298483 30.000000 0.000978 0.000978 -0.999999 
108.835487 -6.087819 30.000000 0.000978 0.000978 -0.999999 
79.017929 -1.103913 30.000000 0.000978 0.000978 -0.999999 
85.619942 -1.769090 30.000000 0.000978 0.000978 -0.999999 
96.985619 -2.161216 30.000000 0.000978 0.000978 -0.999999 
91.679268 0.058217 30.000000 0.000978 0.000978 -0.999999 
94.109589 0.944468 30.000000 0.000978 0.000978 -0.999999 
85.885231 -0.443625 30.000000 0.000978 0.000978 -0.999999 
100.441795 2.693450 30.000000 0.000978 0.000978 -0.999999 
90.687492 2.382799 30.000000 0.000978 0.000978 -0.999999 
76.595695 -1.554920 30.000000 0.000978 0.000978 -0.999999 
72.924095 -2.431613 30.000000 0.000978 0.000978 -0.999999 
67.689087 -1.128212 30.000000 0.000978 0.000978 -0.999999 
99.100792 7.060906 30.000000 0.000978 0.000978 -0.999999 
100.685280 7.238450 30.000000 0.000978 0.000978 -0.999999 
104.798775 14.606594 30.601492 -0.460355 0.887734 0.001319 
106.320213 15.297926 31.111824 -0.368984 0.929435 0.001268 
114.489113 16.296373 31.348923 0.128215 0.991746 0.001096 
116.543495 15.910455 32.104927 0.254023 0.967197 0.001193 
118.865402 15.148145 31.061644 0.394539 0.918878 0.001285 
122.662209 12.814911 30.793194 0.625868 0.779928 0.001376 
124.261253 11.361074 30.466599 0.722131 0.691755 0.001381 
128.722412 1.953436 30.654634 0.992979 0.118289 0.001085 
127.242271 -7.133038 32.444599 0.902354 -0.430994 0.001302 
124.677620 -10.892335 30.510654 0.748548 -0.663079 0.001379 
119.871140 -14.622806 31.016237 0.456129 -0.889912 0.001314 
105.662857 -14.999226 31.144861 -0.409130 -0.912475 0.001291 
113.035103 -4.450320 32.313778 -0.145462 0.989363 0.001110 
116.667397 -1.223844 30.673311 -0.961569 0.274561 0.001210 
116.330460 2.078718 32.011417 -0.885003 -0.465583 0.001319 
119.715019 8.078653 31.734432 -0.416342 -0.909207 0.001297 
105.432785 4.885005 30.933228 0.857729 0.514100 0.001342 
106.535240 4.180712 32.235012 0.123096 0.992394 0.001089 
76.624779 0.651740 31.723442 0.755050 -0.655665 0.001380 
104.175346 -6.900143 32.422199 0.992394 0.123096 0.001089 
77.126633 -1.683212 30.792496 0.246171 -0.969226 0.001189 
88.707413 -2.803301 31.538500 0.000978 -0.999999 0.000978 
82.798485 -2.803301 32.474461 0.000978 -0.999999 0.000978 
81.076324 -2.803301 30.436224 0.000978 -0.999999 0.000978 
99.695358 -5.303301 30.420544 0.000978 0.999999 0.000978 
100.019714 5.303301 30.391825 0.000978 -0.999999 0.000978 
102.374367 4.245120 32.330494 -0.999999 0.000978 0.000978 
86.312462 2.803301 31.415972 0.000978 0.999999 0.000978 
97.049255 2.803301 30.341961 0.000978 0.999999 0.000978 
72.098328 2.803301 32.077000 0.000978 0.999999 0.000978 
74.603767 2.803301 30.500290 0.000978 0.999999 0.000978 
71.164673 -2.803301 31.754141 0.000978 -0.999999 0.000978 
67.832489 -2.803301 30.973629 0.000978 -0.999999 0.000978 
26.507505 4.593290 55.959187 0.000978 0.999999 0.000978 
127.544220 83.670639 57.303326 0.583894 -0.103383 -0.805220 
127.479691 85.666557 53.722008 0.984919 -0.173011 0.001131 
126.921608 82.501488 50.250889 0.984919 -0.173011 0.001131 
132.601959 81.889183 47.500000 0.000978 0.000978 0.999999 
139.168259 81.104836 47.500000 0.000978 0.000978 0.999999 
137.681580 81.932755 47.500000 0.000978 0.000978 0.999999 
146.438736 77.726639 47.500000 0.000978 0.000978 0.999999 
150.210358 78.173164 47.500000 0.000978 0.000978 0.999999 
149.315948 78.382965 47.500000 0.000978 0.000978 0.999999 
155.729233 73.364311 47.500000 0.000978 0.000978 0.999999 
152.846695 76.062492 47.500000 0.000978 0.000978 0.999999 
159.089523 72.477539 47.500000 0.000978 0.000978 0.999999 
165.213577 65.391281 47.500000 0.000978 0.000978 0.999999 
162.803284 67.895668 47.500000 0.000978 0.000978 0.999999 
165.430786 67.597893 47.500000 0.000978 0.000978 0.999999 
178.619980 56.571960 47.500000 0.000978 0.000978 0.999999 
171.124207 60.073414 47.500000 0.000978 0.000978 0.999999 
183.519485 48.949066 47.500000 0.000978 0.000978 0.999999 
183.832947 46.496624 47.500000 0.000978 0.000978 0.999999 
188.200272 42.619152 47.500000 0.000978 0.000978 0.999999 
192.014816 33.688068 47.500000 0.000978 0.000978 0.999999 
192.592102 33.225735 47.500000 0.000978 0.000978 0.999999 
194.639465 29.127050 47.500000 0.000978 0.000978 0.999999 
194.468842 23.985216 47.500000 0.000978 0.000978 0.999999 
196.945923 13.651360 47.500000 0.000978 0.000978 0.999999 
197.074402 9.497289 47.500000 0.000978 0.000978 0.999999 
198.110474 10.463737 47.500000 0.000978 0.000978 0.999999 
199.164886 7.593184 54.801723 -0.087863 0.996132 0.001059 
195.953964 7.312267 50.190914 -0.087863 0.996132 0.001059 
58.253006 61.961132 46.313225 0.657486 -0.751616 0.052770 
56.312988 60.305161 46.356026 0.679207 -0.728870 0.086179 
33.469860 23.570782 46.416653 0.949908 -0.281899 0.134938 
55.546570 -59.527626 46.482582 0.678758 0.709541 0.189313 
67.451904 -68.935066 46.338257 0.543708 0.836146 0.072400 
118.066689 -82.178421 46.360092 -0.068646 0.993672 0.088902 
181.445786 -44.935467 46.383759 -0.832656 0.543036 0.108607 
77.263229 74.666862 46.911552 0.361844 -0.764253 0.533841 
137.010498 -78.791939 47.015724 -0.239836 0.747723 0.619184 
183.482147 -42.339481 47.128029 -0.611549 0.362338 0.703363 
190.420975 -26.611660 46.918819 -0.798183 0.271288 0.537872 
195.060959 3.717302 47.104141 -0.726200 -0.032432 0.686718 
194.058472 12.424672 47.119404 -0.707402 -0.107809 0.698541 
164.871490 64.243904 47.363781 -0.277141 -0.345315 0.896633 
162.268539 66.540604 47.439476 -0.174654 -0.235983 0.955933 
135.112366 80.008362 47.379673 -0.112264 -0.397776 0.910588 
76.817116 75.036751 47.368587 0.189547 -0.389222 0.901431 
62.670979 66.812653 47.412521 0.206979 -0.279213 0.937657 
37.905575 37.374893 47.447113 0.251383 -0.123738 0.959946 
30.026274 11.887008 47.426571 0.317510 -0.039529 0.947430 
42.865402 -45.932213 47.435463 0.250121 0.167193 0.953670 
43.716415 -47.235020 47.442284 0.234610 0.163034 0.958321 
129.313156 -81.293396 47.379482 -0.089091 0.401596 0.911473 
187.813736 -34.933296 47.402702 -0.335737 0.150598 0.929839 
187.677231 35.043232 47.405388 -0.324617 -0.158855 0.932410 
68.570671 69.639343 46.333145 0.531391 -0.844306 0.069067 
106.355743 82.086594 46.463421 0.073144 -0.982049 0.173867 
148.323318 74.205246 46.376614 -0.434241 -0.895011 0.101928 
172.722534 55.948116 46.515316 -0.715287 -0.665420 0.213495 
80.859749 77.332573 47.498245 0.004945 -0.008902 0.999948 
56.593010 61.890446 47.467564 0.131578 -0.148794 0.980075 
31.113203 -18.283312 47.465824 0.202345 0.046695 0.978200 
45.418472 -49.814541 47.474926 0.125430 0.087918 0.988199 
75.756218 -74.834183 47.466682 0.089242 0.182151 0.979212 
162.730957 -66.630562 47.482533 -0.068214 0.083870 0.994139 
194.007339 -17.929134 47.494442 -0.033416 0.005063 0.999429 
140.432480 78.436905 47.466061 -0.071718 -0.193273 0.978520 
114.159821 83.261871 47.460804 -0.003549 -0.237799 0.971308 
32.135696 -18.557907 46.682693 0.912734 0.214846 0.347502 
48.079937 -51.446465 46.676868 0.730984 0.587718 0.346770 
103.614815 -81.890831 46.637398 0.099408 0.945039 0.311479 
130.252472 -80.549881 46.869797 -0.189917 0.847896 0.494980 
154.660980 -70.841240 46.711971 -0.477098 0.795164 0.374289 
182.664307 -43.343277 46.706238 -0.790978 0.488119 0.368908 
187.252533 34.310387 46.717316 -0.840345 -0.387972 0.378548 
58.601990 62.916481 47.242672 0.392885 -0.447408 0.803410 
36.385887 -32.693111 47.153801 0.631114 0.271840 0.726497 
123.820930 -82.052689 47.270081 -0.084746 0.561622 0.823042 
134.441681 -79.944412 47.272148 -0.152980 0.545082 0.824307 
175.328690 -54.197300 47.299915 -0.405367 0.352153 0.843603 
190.319809 -28.183363 47.320473 -0.483092 0.172850 0.858338 
190.296051 28.058655 47.176910 -0.624399 -0.230042 0.746462 
178.131271 51.216866 47.447159 -0.223117 -0.170308 0.959799 
77.416458 74.610970 46.672928 0.399800 -0.850937 0.340686 
116.235512 82.287094 46.749378 -0.041107 -0.913640 0.404441 
135.372391 79.326881 46.772449 -0.252147 -0.871189 0.421251 
162.337555 65.418747 46.578331 -0.584633 -0.767430 0.263164 
195.502853 -13.055598 47.500000 0.000978 0.000978 0.999999 
196.903259 -19.579374 47.500000 0.000978 0.000978 0.999999 
194.823486 -24.000973 47.500000 0.000978 0.000978 0.999999 
192.920700 -29.357958 47.500000 0.000978 0.000978 0.999999 
192.568268 -31.444813 47.500000 0.000978 0.000978 0.999999 
189.159897 -36.065758 47.500000 0.000978 0.000978 0.999999 
189.705597 -39.742775 47.500000 0.000978 0.000978 0.999999 
186.999695 -40.907742 47.500000 0.000978 0.000978 0.999999 
185.642715 -44.081787 47.500000 0.000978 0.000978 0.999999 
182.294922 -51.843769 47.500000 0.000978 0.000978 0.999999 
177.667343 -53.803394 47.500000 0.000978 0.000978 0.999999 
173.879013 -58.974422 47.500000 0.000978 0.000978 0.999999 
166.932465 -67.636169 47.500000 0.000978 0.000978 0.999999 
163.423737 -70.005623 47.500000 0.000978 0.000978 0.999999 
158.543243 -73.382980 47.500000 0.000978 0.000978 0.999999 
158.434814 -71.769257 47.500000 0.000978 0.000978 0.999999 
155.573898 -71.710175 47.500000 0.000978 0.000978 0.999999 
147.188126 -77.843216 47.500000 0.000978 0.000978 0.999999 
146.996292 -76.059311 47.500000 0.000978 0.000978 0.999999 
140.761703 -79.601486 47.500000 0.000978 0.000978 0.999999 
136.320114 -83.153000 47.500000 0.000978 0.000978 0.999999 
133.153824 -82.367943 47.500000 0.000978 0.000978 0.999999 
99.359360 -82.739540 47.500000 0.000978 0.000978 0.999999 
101.320938 -83.800514 47.500000 0.000978 0.000978 0.999999 
89.422104 -80.618706 47.500000 0.000978 0.000978 0.999999 
90.153374 -80.941650 47.500000 0.000978 0.000978 0.999999 
90.124207 -83.906868 47.500000 0.000978 0.000978 0.999999 
86.540749 -79.909592 47.500000 0.000978 0.000978 0.999999 
80.271019 -77.592941 47.500000 0.000978 0.000978 0.999999 
77.884178 -77.160477 47.500000 0.000978 0.000978 0.999999 
79.472595 -79.444748 47.500000 0.000978 0.000978 0.999999 
74.338226 -77.676270 47.500000 0.000978 0.000978 0.999999 
66.228203 -73.251595 47.500000 0.000978 0.000978 0.999999 
66.526482 -71.056519 47.500000 0.000978 0.000978 0.999999 
62.309483 -70.711708 47.500000 0.000978 0.000978 0.999999 
57.457661 -65.895363 47.500000 0.000978 0.000978 0.999999 
55.468822 -61.648449 47.500000 0.000978 0.000978 0.999999 
47.679737 -57.455357 47.500000 0.000978 0.000978 0.999999 
52.667225 -62.863953 47.500000 0.000978 0.000978 0.999999 
50.086182 -57.536873 47.500000 0.000978 0.000978 0.999999 
45.844090 -52.118324 47.500000 0.000978 0.000978 0.999999 
40.256866 -44.361115 47.500000 0.000978 0.000978 0.999999 
44.533276 -49.894089 47.500000 0.000978 0.000978 0.999999 
32.858727 -35.499985 47.500000 0.000978 0.000978 0.999999 
36.399216 -41.630531 47.500000 0.000978 0.000978 0.999999 
35.313713 -33.330929 47.500000 0.000978 0.000978 0.999999 
33.244892 -33.092648 47.500000 0.000978 0.000978 0.999999 
32.594559 -31.532932 47.500000 0.000978 0.000978 0.999999 
31.901449 -30.610004 47.500000 0.000978 0.000978 0.999999 
31.701162 -26.579679 47.500000 0.000978 0.000978 0.999999 
33.009815 -27.202604 47.500000 0.000978 0.000978 0.999999 
27.268707 -18.617996 47.500000 0.000978 0.000978 0.999999 
27.584139 -16.569309 47.500000 0.000978 0.000978 0.999999 
26.611610 -7.744042 47.500000 0.000978 0.000978 0.999999 
105.771858 82.024506 43.914005 0.081042 -0.996710 0.001052 
112.746750 82.464172 42.665092 -0.004907 -0.999987 0.000981 
115.528786 82.287857 45.081970 -0.037537 -0.999295 0.001015 
121.290314 81.972733 43.899342 -0.108776 -0.994066 0.001077 
125.040794 81.473984 45.162540 -0.152980 -0.988229 0.001117 
134.079697 79.487640 44.752724 -0.263117 -0.964763 0.001201 
140.928131 77.286133 43.720997 -0.347682 -0.937612 0.001255 
147.297211 74.629646 43.808994 -0.424733 -0.905318 0.001299 
152.411301 71.864998 46.159748 -0.487672 -0.873026 0.001329 
153.650955 71.245285 43.730907 -0.501457 -0.865181 0.001337 
160.896164 66.632660 42.983482 -0.587928 -0.808912 0.001364 
160.253540 67.097702 44.124187 -0.579946 -0.814654 0.001365 
167.542114 61.212341 43.948780 -0.668888 -0.743362 0.001379 
168.201675 60.684685 44.583729 -0.677534 -0.735490 0.001380 
174.210266 54.321766 44.971954 -0.751123 -0.660161 0.001378 
170.885422 57.936935 43.935459 -0.709868 -0.704333 0.001384 
172.856293 55.800114 42.700024 -0.734219 -0.678911 0.001383 
172.058044 56.671246 42.630165 -0.724826 -0.688930 0.001381 
177.642181 50.344276 44.638653 -0.791857 -0.610705 0.001372 
177.226669 50.953182 43.408058 -0.785794 -0.618487 0.001371 
180.272858 46.442741 46.058075 -0.825507 -0.564391 0.001360 
187.221207 34.287796 42.997356 -0.909207 -0.416342 0.001297 
187.899384 32.853725 44.091213 -0.916599 -0.399807 0.001286 
189.529312 29.136019 45.704041 -0.935342 -0.353743 0.001259 
191.646729 22.235773 44.681225 -0.962562 -0.271059 0.001205 
192.866302 17.577631 42.975880 -0.977028 -0.213106 0.001165 
192.568085 19.335649 43.102577 -0.972119 -0.234487 0.001178 
193.819778 11.921569 45.272385 -0.989410 -0.145143 0.001108 
194.593628 6.007916 45.734215 -0.997389 -0.072214 0.001047 
194.723709 4.589581 44.084080 -0.998507 -0.054614 0.001030 
194.601227 -3.786773 45.827320 -0.998945 0.045917 0.001020 
194.700806 -1.201664 45.025440 -0.999889 0.014865 0.000991 
194.589905 -6.338751 42.533714 -0.997054 0.076696 0.001051 
192.867111 -17.456942 42.740780 -0.977134 0.212622 0.001162 
193.623779 -13.004045 44.641407 -0.987489 0.157685 0.001118 
191.245239 -23.559040 42.704205 -0.958193 0.286119 0.001218 
189.386703 -29.238750 43.897964 -0.935026 0.354578 0.001262 
187.915283 -32.872196 42.788200 -0.917539 0.397643 0.001287 
183.259460 -42.157970 44.186764 -0.859615 0.510941 0.001341 
182.120651 -43.786552 42.529877 -0.846861 0.531813 0.001346 
181.188431 -45.281364 45.954407 -0.834745 0.550634 0.001353 
176.554581 -51.796318 42.993843 -0.777500 0.628881 0.001376 
172.780396 -55.900692 42.772820 -0.732842 0.680398 0.001380 
168.519958 -60.264492 45.243931 -0.681775 0.731560 0.001383 
165.420700 -63.070324 44.786095 -0.643838 0.765161 0.001379 
160.844879 -66.505730 45.655186 -0.589227 0.807966 0.001367 
154.135376 -70.957947 43.221588 -0.507781 0.861485 0.001340 
149.870605 -73.297142 45.128342 -0.456129 0.889912 0.001314 
