ply
format ascii 1.0
comment Created by CloudCompare v2.12.4 (Kyiv)
comment Created 2023-03-23T18:55:01
obj_info Generated by CloudCompare!
element vertex 770
property float x
property float y
property float z
property float nx
property float ny
property float nz
end_header
-202.641373 99.499237 0.000000 0.000978 0.000978 0.999999 
-145.932190 55.589165 0.000000 0.000978 0.000978 0.999999 
-242.996872 -155.083649 0.000000 0.000978 0.000978 0.999999 
-91.720062 90.848030 0.000000 0.000978 0.000978 0.999999 
-118.017258 99.141876 0.000000 0.000978 0.000978 0.999999 
-243.065994 7.552383 0.000000 0.000978 0.000978 0.999999 
-239.286880 72.404205 0.000000 0.000978 0.000978 0.999999 
-135.806702 49.118481 0.000000 0.000978 0.000978 0.999999 
-196.055206 -76.343819 0.000000 0.000978 0.000978 0.999999 
-167.405884 66.350952 0.000000 0.000978 0.000978 0.999999 
-172.128342 -7.179588 0.000000 0.000978 0.000978 0.999999 
-225.491302 -138.869598 0.000000 0.000978 0.000978 0.999999 
-149.560028 93.505226 0.000000 0.000978 0.000978 0.999999 
-105.425171 95.048126 0.000000 0.000978 0.000978 0.999999 
-241.771332 101.605408 0.000000 0.000978 0.000978 0.999999 
-198.169296 -13.881577 0.000000 0.000978 0.000978 0.999999 
-168.816467 21.886086 0.000000 0.000978 0.000978 0.999999 
-240.983643 92.080627 0.000000 0.000978 0.000978 0.999999 
-138.492737 106.319397 0.000000 0.000978 0.000978 0.999999 
-177.093445 -6.776306 0.000000 0.000978 0.000978 0.999999 
-208.012909 -105.923462 0.000000 0.000978 0.000978 0.999999 
-148.535995 105.527351 0.000000 0.000978 0.000978 0.999999 
-178.051361 -49.067745 0.000000 0.000978 0.000978 0.999999 
-104.721527 79.053551 0.000000 0.000978 0.000978 0.999999 
-219.471954 76.534729 0.000000 0.000978 0.000978 0.999999 
-239.489471 -76.586472 0.000000 0.000978 0.000978 0.999999 
-224.841263 44.311050 0.000000 0.000978 0.000978 0.999999 
-195.937927 -90.136635 0.000000 0.000978 0.000978 0.999999 
-163.589432 78.519585 0.000000 0.000978 0.000978 0.999999 
-211.018295 23.519783 0.000000 0.000978 0.000978 0.999999 
-246.199585 23.139359 0.000000 0.000978 0.000978 0.999999 
-238.558670 -122.168045 0.000000 0.000978 0.000978 0.999999 
-165.457520 84.827728 0.000000 0.000978 0.000978 0.999999 
-151.287537 -0.779240 0.000000 0.000978 0.000978 0.999999 
-191.202728 -12.017929 0.000000 0.000978 0.000978 0.999999 
-226.387756 -66.753105 0.000000 0.000978 0.000978 0.999999 
-236.884598 52.751328 0.000000 0.000978 0.000978 0.999999 
-207.223602 38.788902 0.000000 0.000978 0.000978 0.999999 
-145.739594 0.988573 0.000000 0.000978 0.000978 0.999999 
-236.960495 44.645966 0.000000 0.000978 0.000978 0.999999 
-135.137939 100.512527 0.000000 0.000978 0.000978 0.999999 
-227.523331 21.433884 0.000000 0.000978 0.000978 0.999999 
-241.195862 -20.945969 0.000000 0.000978 0.000978 0.999999 
-147.150452 105.730141 0.000000 0.000978 0.000978 0.999999 
-184.138245 44.858574 0.000000 0.000978 0.000978 0.999999 
-239.092804 3.658752 0.000000 0.000978 0.000978 0.999999 
-115.809021 60.587070 0.000000 0.000978 0.000978 0.999999 
-192.979614 106.680748 0.000000 0.000978 0.000978 0.999999 
-161.713181 -37.166245 0.000000 0.000978 0.000978 0.999999 
-246.350327 73.026459 0.000000 0.000978 0.000978 0.999999 
-243.807907 -154.561172 0.000000 0.000978 0.000978 0.999999 
-161.972000 12.138428 0.000000 0.000978 0.000978 0.999999 
-191.753174 -62.727848 0.000000 0.000978 0.000978 0.999999 
-142.040375 100.593018 0.000000 0.000978 0.000978 0.999999 
-89.894775 104.794098 0.000000 0.000978 0.000978 0.999999 
-251.800797 -32.247482 0.000000 0.000978 0.000978 0.999999 
-137.017914 17.313286 0.000000 0.000978 0.000978 0.999999 
-104.282715 100.721115 0.000000 0.000978 0.000978 0.999999 
-251.864197 42.950989 0.000000 0.000978 0.000978 0.999999 
-192.767044 35.537735 0.000000 0.000978 0.000978 0.999999 
-136.051056 40.893608 0.000000 0.000978 0.000978 0.999999 
-228.000717 -20.108139 0.000000 0.000978 0.000978 0.999999 
-181.256393 -25.246803 0.000000 0.000978 0.000978 0.999999 
-211.493011 -33.004829 0.000000 0.000978 0.000978 0.999999 
-255.331741 -146.050064 0.000000 0.000978 0.000978 0.999999 
-176.837067 31.698860 0.000000 0.000978 0.000978 0.999999 
-171.041718 28.365555 0.000000 0.000978 0.000978 0.999999 
-248.541946 -120.818390 0.000000 0.000978 0.000978 0.999999 
-167.368286 -13.777588 0.000000 0.000978 0.000978 0.999999 
-248.173264 -25.764008 0.000000 0.000978 0.000978 0.999999 
-117.941833 64.884193 0.000000 0.000978 0.000978 0.999999 
-212.764847 43.293198 0.000000 0.000978 0.000978 0.999999 
-118.495346 48.460033 0.000000 0.000978 0.000978 0.999999 
-148.159393 52.950310 0.000000 0.000978 0.000978 0.999999 
-115.821869 48.363800 0.000000 0.000978 0.000978 0.999999 
-149.015366 47.287956 0.000000 0.000978 0.000978 0.999999 
-148.264282 -11.263011 0.000000 0.000978 0.000978 0.999999 
-160.706421 19.077553 0.000000 0.000978 0.000978 0.999999 
-216.556259 28.561707 0.000000 0.000978 0.000978 0.999999 
-165.385010 74.650833 0.000000 0.000978 0.000978 0.999999 
-153.993561 91.224792 0.000000 0.000978 0.000978 0.999999 
-229.199158 -146.564529 0.000000 0.000978 0.000978 0.999999 
-233.505310 -7.248413 0.000000 0.000978 0.000978 0.999999 
-235.141586 -111.379379 0.000000 0.000978 0.000978 0.999999 
-235.834122 -50.400711 0.000000 0.000978 0.000978 0.999999 
-219.414276 -23.383850 0.000000 0.000978 0.000978 0.999999 
-139.466385 26.815622 0.000000 0.000978 0.000978 0.999999 
-163.052521 60.341385 0.000000 0.000978 0.000978 0.999999 
-106.011505 98.132370 0.000000 0.000978 0.000978 0.999999 
-224.690979 -93.129753 0.000000 0.000978 0.000978 0.999999 
-244.077347 96.685699 0.000000 0.000978 0.000978 0.999999 
-193.480286 -86.952744 0.000000 0.000978 0.000978 0.999999 
-240.646133 -13.920410 0.000000 0.000978 0.000978 0.999999 
-164.312622 22.576691 0.000000 0.000978 0.000978 0.999999 
-184.750748 48.582748 0.000000 0.000978 0.000978 0.999999 
-174.000549 0.477127 0.000000 0.000978 0.000978 0.999999 
-155.524902 15.862701 0.000000 0.000978 0.000978 0.999999 
-146.981171 44.190838 0.000000 0.000978 0.000978 0.999999 
-211.222366 -13.073975 0.000000 0.000978 0.000978 0.999999 
-146.841766 30.900032 0.000000 0.000978 0.000978 0.999999 
-234.210526 -58.357132 0.000000 0.000978 0.000978 0.999999 
-253.408661 -11.046844 0.000000 0.000978 0.000978 0.999999 
-184.818726 107.252686 0.000000 0.000978 0.000978 0.999999 
-174.083008 15.793488 0.000000 0.000978 0.000978 0.999999 
-84.774353 106.620033 0.000000 0.000978 0.000978 0.999999 
-251.652267 -170.903473 0.000000 0.000978 0.000978 0.999999 
-157.518677 82.878716 0.000000 0.000978 0.000978 0.999999 
-147.905045 65.345581 0.000000 0.000978 0.000978 0.999999 
-248.169495 -133.870148 0.000000 0.000978 0.000978 0.999999 
-207.686188 65.149719 0.000000 0.000978 0.000978 0.999999 
-244.349350 -4.991547 0.000000 0.000978 0.000978 0.999999 
-194.931015 -86.607544 0.000000 0.000978 0.000978 0.999999 
-176.188934 -20.376068 0.000000 0.000978 0.000978 0.999999 
-235.897537 0.717407 0.000000 0.000978 0.000978 0.999999 
-197.725098 8.724007 0.000000 0.000978 0.000978 0.999999 
-197.427887 30.745316 0.000000 0.000978 0.000978 0.999999 
-211.646149 -7.819672 0.000000 0.000978 0.000978 0.999999 
-181.274750 20.294044 0.000000 0.000978 0.000978 0.999999 
-196.627426 -55.618622 0.000000 0.000978 0.000978 0.999999 
-126.342178 27.957447 0.000000 0.000978 0.000978 0.999999 
-247.577759 -16.696289 0.000000 0.000978 0.000978 0.999999 
-213.414062 -83.309921 0.000000 0.000978 0.000978 0.999999 
-223.781204 17.774780 0.000000 0.000978 0.000978 0.999999 
-224.131165 26.953171 0.000000 0.000978 0.000978 0.999999 
-212.145966 -74.752571 0.000000 0.000978 0.000978 0.999999 
-196.909012 -16.859512 0.000000 0.000978 0.000978 0.999999 
-170.939056 72.796555 0.000000 0.000978 0.000978 0.999999 
-207.928223 14.206421 0.000000 0.000978 0.000978 0.999999 
-211.703308 -83.328171 0.000000 0.000978 0.000978 0.999999 
-136.829834 33.007210 0.000000 0.000978 0.000978 0.999999 
-226.152969 24.979431 0.000000 0.000978 0.000978 0.999999 
-205.533966 76.346222 0.000000 0.000978 0.000978 0.999999 
-256.158997 51.589554 0.000000 0.000978 0.000978 0.999999 
-229.796600 107.187134 0.000000 0.000978 0.000978 0.999999 
-249.905029 -192.146118 0.000000 0.000978 0.000978 0.999999 
-233.849503 -112.394226 0.000000 0.000978 0.000978 0.999999 
-241.886703 -96.826729 0.000000 0.000978 0.000978 0.999999 
-183.526810 61.746414 0.000000 0.000978 0.000978 0.999999 
-187.410721 81.708405 0.000000 0.000978 0.000978 0.999999 
-238.488739 104.019302 0.000000 0.000978 0.000978 0.999999 
-220.358856 16.557892 0.000000 0.000978 0.000978 0.999999 
-256.189392 -19.848923 0.000000 0.000978 0.000978 0.999999 
-149.692627 24.454853 0.000000 0.000978 0.000978 0.999999 
-236.117111 95.054596 0.000000 0.000978 0.000978 0.999999 
-189.847076 95.114746 0.000000 0.000978 0.000978 0.999999 
-222.064621 -6.668686 0.000000 0.000978 0.000978 0.999999 
-193.639923 -27.011505 0.000000 0.000978 0.000978 0.999999 
-233.681534 -147.070465 0.000000 0.000978 0.000978 0.999999 
-107.925522 103.214760 0.000000 0.000978 0.000978 0.999999 
-102.377243 96.298172 0.000000 0.000978 0.000978 0.999999 
-209.064728 56.902115 0.000000 0.000978 0.000978 0.999999 
-168.040009 -28.927942 0.000000 0.000978 0.000978 0.999999 
-255.062378 52.788818 0.000000 0.000978 0.000978 0.999999 
-220.798004 -124.398712 0.000000 0.000978 0.000978 0.999999 
-223.617462 -82.011566 0.000000 0.000978 0.000978 0.999999 
-254.309357 -34.821487 0.000000 0.000978 0.000978 0.999999 
-227.882111 -150.772141 0.000000 0.000978 0.000978 0.999999 
-216.776642 -124.624939 0.000000 0.000978 0.000978 0.999999 
-199.118851 -62.092468 0.000000 0.000978 0.000978 0.999999 
-182.435226 42.593124 0.000000 0.000978 0.000978 0.999999 
-218.982132 15.658325 0.000000 0.000978 0.000978 0.999999 
-246.459091 -17.338211 0.000000 0.000978 0.000978 0.999999 
-252.837051 68.180542 0.000000 0.000978 0.000978 0.999999 
-175.792023 52.849136 0.000000 0.000978 0.000978 0.999999 
-165.264465 49.991592 0.000000 0.000978 0.000978 0.999999 
-184.602600 80.367004 0.000000 0.000978 0.000978 0.999999 
-195.376190 -25.669098 0.000000 0.000978 0.000978 0.999999 
-219.071945 -42.133270 0.000000 0.000978 0.000978 0.999999 
-217.657928 95.885406 0.000000 0.000978 0.000978 0.999999 
-174.569733 9.200836 0.000000 0.000978 0.000978 0.999999 
-238.997452 0.105850 0.000000 0.000978 0.000978 0.999999 
-159.740982 59.574066 0.000000 0.000978 0.000978 0.999999 
-217.278412 26.322800 0.000000 0.000978 0.000978 0.999999 
-244.914337 -76.764320 0.000000 0.000978 0.000978 0.999999 
-179.902802 -34.503925 0.000000 0.000978 0.000978 0.999999 
-205.283356 -104.704750 0.000000 0.000978 0.000978 0.999999 
-237.739716 45.279480 0.000000 0.000978 0.000978 0.999999 
-208.634125 100.738388 0.000000 0.000978 0.000978 0.999999 
-174.636353 68.504822 0.000000 0.000978 0.000978 0.999999 
-252.818512 1.073517 0.000000 0.000978 0.000978 0.999999 
-257.500000 -185.029358 -21.252928 -0.999999 0.000978 0.000978 
-257.500000 63.366852 -29.103268 -0.999999 0.000978 0.000978 
-257.500000 -170.623611 -10.015459 -0.999999 0.000978 0.000978 
-257.500000 -182.177658 -20.109337 -0.999999 0.000978 0.000978 
-257.500000 -197.548904 -27.916836 -0.999999 0.000978 0.000978 
-257.500000 -127.468330 -14.875488 -0.999999 0.000978 0.000978 
-257.500000 -128.637070 -11.880840 -0.999999 0.000978 0.000978 
-257.500000 -54.738739 -17.979168 -0.999999 0.000978 0.000978 
-257.500000 -132.266266 -15.846935 -0.999999 0.000978 0.000978 
-257.500000 -103.353691 -16.785179 -0.999999 0.000978 0.000978 
-257.500000 -94.781372 -25.914812 -0.999999 0.000978 0.000978 
-257.500000 -59.660339 -27.387108 -0.999999 0.000978 0.000978 
-257.500000 -200.805725 -26.266718 -0.999999 0.000978 0.000978 
-257.500000 -116.465515 -18.718155 -0.999999 0.000978 0.000978 
-257.500000 -205.913727 -25.991966 -0.999999 0.000978 0.000978 
-257.500000 -89.810471 -18.029818 -0.999999 0.000978 0.000978 
-257.500000 -206.951080 -11.994400 -0.999999 0.000978 0.000978 
-257.500000 -91.429504 -24.423943 -0.999999 0.000978 0.000978 
-257.500000 -195.786041 -26.508245 -0.999999 0.000978 0.000978 
-257.500000 -134.105316 -14.126632 -0.999999 0.000978 0.000978 
-257.500000 -170.349243 -27.388180 -0.999999 0.000978 0.000978 
-257.500000 -159.617432 -12.069391 -0.999999 0.000978 0.000978 
-257.500000 -129.044647 -12.346682 -0.999999 0.000978 0.000978 
-257.500000 28.178406 -22.772629 -0.999999 0.000978 0.000978 
-257.500000 3.761826 -25.350948 -0.999999 0.000978 0.000978 
-257.500000 9.660477 -24.776573 -0.999999 0.000978 0.000978 
-257.500000 -172.464920 -27.837086 -0.999999 0.000978 0.000978 
-257.500000 62.868439 -29.620707 -0.999999 0.000978 0.000978 
-257.500000 -57.861267 -29.706423 -0.999999 0.000978 0.000978 
-257.500000 -115.159996 -13.883932 -0.999999 0.000978 0.000978 
-257.500000 -61.890427 -23.758696 -0.999999 0.000978 0.000978 
-257.500000 0.273270 -28.977434 -0.999999 0.000978 0.000978 
-257.500000 -7.386612 -22.158144 -0.999999 0.000978 0.000978 
-257.500000 -107.201340 -17.809063 -0.999999 0.000978 0.000978 
-257.500000 18.627136 -24.009420 -0.999999 0.000978 0.000978 
-257.500000 26.634674 -25.430798 -0.999999 0.000978 0.000978 
-257.500000 -174.392746 -19.522108 -0.999999 0.000978 0.000978 
-257.500000 -186.304916 -12.670694 -0.999999 0.000978 0.000978 
-257.500000 -82.850739 -18.479515 -0.999999 0.000978 0.000978 
-257.500000 -64.446930 -14.529856 -0.999999 0.000978 0.000978 
-257.500000 -196.505386 -3.616194 -0.999999 0.000978 0.000978 
-257.500000 -44.260132 -24.098255 -0.999999 0.000978 0.000978 
-257.500000 -135.125031 -18.391220 -0.999999 0.000978 0.000978 
-257.500000 -93.856659 -18.770805 -0.999999 0.000978 0.000978 
-257.500000 -126.175087 -18.622990 -0.999999 0.000978 0.000978 
-257.500000 -65.741104 -26.708031 -0.999999 0.000978 0.000978 
-257.500000 -211.540054 -27.803318 -0.999999 0.000978 0.000978 
-257.500000 -159.407623 -17.321125 -0.999999 0.000978 0.000978 
-257.500000 -204.490295 -12.396242 -0.999999 0.000978 0.000978 
-257.500000 -175.371674 -14.295357 -0.999999 0.000978 0.000978 
-257.500000 -122.840729 -9.194811 -0.999999 0.000978 0.000978 
-257.500000 -83.122040 -25.230204 -0.999999 0.000978 0.000978 
-257.500000 -56.228409 -17.829687 -0.999999 0.000978 0.000978 
-257.500000 -44.486252 -22.571764 -0.999999 0.000978 0.000978 
-257.500000 -97.346916 -15.720309 -0.999999 0.000978 0.000978 
-257.500000 9.872726 -27.227674 -0.999999 0.000978 0.000978 
-257.500000 -196.315628 -17.127731 -0.999999 0.000978 0.000978 
-257.500000 57.903107 -25.615807 -0.999999 0.000978 0.000978 
-257.500000 -148.561630 -8.637728 -0.999999 0.000978 0.000978 
-257.500000 -136.966095 -18.376770 -0.999999 0.000978 0.000978 
-257.500000 -153.421082 -15.599023 -0.999999 0.000978 0.000978 
-257.500000 -91.677330 -13.888783 -0.999999 0.000978 0.000978 
-257.500000 -193.167404 -14.597005 -0.999999 0.000978 0.000978 
-257.500000 -62.848846 -18.692497 -0.999999 0.000978 0.000978 
-257.500000 -144.111389 -26.561781 -0.999999 0.000978 0.000978 
-257.500000 -168.434586 -27.807526 -0.999999 0.000978 0.000978 
-257.500000 -186.193283 -15.893374 -0.999999 0.000978 0.000978 
-257.500000 -53.164200 -24.103451 -0.999999 0.000978 0.000978 
-257.500000 -133.254349 -9.635057 -0.999999 0.000978 0.000978 
-257.500000 -128.680237 -9.824018 -0.999999 0.000978 0.000978 
-257.500000 -152.098389 -7.179621 -0.999999 0.000978 0.000978 
-257.500000 2.074265 -29.681139 -0.999999 0.000978 0.000978 
-257.500000 -130.425949 -11.053885 -0.999999 0.000978 0.000978 
-257.500000 -106.032532 -24.861284 -0.999999 0.000978 0.000978 
-257.500000 -140.531555 -28.165697 -0.999999 0.000978 0.000978 
-257.500000 -68.872543 -21.350386 -0.999999 0.000978 0.000978 
-257.500000 -99.576477 -18.554436 -0.999999 0.000978 0.000978 
-257.500000 -169.801605 -10.539253 -0.999999 0.000978 0.000978 
-257.500000 -94.059410 -20.909222 -0.999999 0.000978 0.000978 
-257.500000 -155.537552 -27.824463 -0.999999 0.000978 0.000978 
-257.500000 -112.578033 -22.944223 -0.999999 0.000978 0.000978 
-257.500000 -49.578247 -17.623264 -0.999999 0.000978 0.000978 
-257.500000 -153.474579 -10.152742 -0.999999 0.000978 0.000978 
-257.500000 -207.517197 -13.184975 -0.999999 0.000978 0.000978 
-257.500000 -174.167603 -27.880255 -0.999999 0.000978 0.000978 
-257.500000 -155.538071 -8.447405 -0.999999 0.000978 0.000978 
-257.500000 -160.154694 -27.794340 -0.999999 0.000978 0.000978 
-257.500000 -47.724182 -24.714218 -0.999999 0.000978 0.000978 
-257.500000 -131.651077 -24.650051 -0.999999 0.000978 0.000978 
-257.500000 -145.356979 -19.691467 -0.999999 0.000978 0.000978 
-257.500000 -107.043747 -23.966705 -0.999999 0.000978 0.000978 
-257.500000 81.048981 -28.337427 -0.999999 0.000978 0.000978 
-257.500000 -103.758766 -23.343040 -0.999999 0.000978 0.000978 
-257.500000 -168.475159 -17.420973 -0.999999 0.000978 0.000978 
-257.500000 6.882950 -28.102697 -0.999999 0.000978 0.000978 
-257.500000 82.904022 -29.407389 -0.999999 0.000978 0.000978 
-257.500000 -3.130783 -19.837246 -0.999999 0.000978 0.000978 
-257.500000 -64.639816 -29.263083 -0.999999 0.000978 0.000978 
-257.500000 -115.229103 -23.628916 -0.999999 0.000978 0.000978 
-257.500000 -144.189606 -21.999252 -0.999999 0.000978 0.000978 
-257.500000 -80.764862 -12.596426 -0.999999 0.000978 0.000978 
-257.500000 -117.580322 -26.378338 -0.999999 0.000978 0.000978 
-257.500000 -162.137573 -6.444927 -0.999999 0.000978 0.000978 
-257.500000 -209.099548 -5.926102 -0.999999 0.000978 0.000978 
-257.500000 -45.947647 -24.713982 -0.999999 0.000978 0.000978 
-257.500000 -134.939926 -20.282686 -0.999999 0.000978 0.000978 
-257.500000 -196.545685 -28.258530 -0.999999 0.000978 0.000978 
-257.500000 -94.011917 -27.243889 -0.999999 0.000978 0.000978 
-257.500000 -182.669693 -15.627479 -0.999999 0.000978 0.000978 
-257.500000 -92.211380 -23.096149 -0.999999 0.000978 0.000978 
-257.500000 -144.039764 -14.554294 -0.999999 0.000978 0.000978 
-257.500000 -100.518028 -23.379332 -0.999999 0.000978 0.000978 
-257.500000 -176.503906 -5.584421 -0.999999 0.000978 0.000978 
-257.500000 34.130875 -26.997856 -0.999999 0.000978 0.000978 
-257.500000 -168.909393 -12.247551 -0.999999 0.000978 0.000978 
-257.500000 -79.957718 -28.454494 -0.999999 0.000978 0.000978 
-257.500000 -168.397476 -10.678303 -0.999999 0.000978 0.000978 
-257.500000 -92.594643 -17.566898 -0.999999 0.000978 0.000978 
-257.500000 -211.566895 -19.679775 -0.999999 0.000978 0.000978 
-257.500000 -84.001984 -21.665054 -0.999999 0.000978 0.000978 
-257.500000 -2.387665 -19.897770 -0.999999 0.000978 0.000978 
-257.500000 -118.199043 -23.111679 -0.999999 0.000978 0.000978 
-257.500000 3.592560 -25.298262 -0.999999 0.000978 0.000978 
-257.500000 -42.242722 -28.737427 -0.999999 0.000978 0.000978 
-257.500000 -130.931717 -19.874914 -0.999999 0.000978 0.000978 
-257.500000 -8.057999 -25.306757 -0.999999 0.000978 0.000978 
-257.500000 -53.296951 -15.675852 -0.999999 0.000978 0.000978 
-257.500000 -191.975174 -19.097893 -0.999999 0.000978 0.000978 
-257.500000 -162.680328 -17.420536 -0.999999 0.000978 0.000978 
-257.500000 -135.367767 -18.948561 -0.999999 0.000978 0.000978 
-257.500000 -102.268143 -21.275272 -0.999999 0.000978 0.000978 
-257.500000 -133.150574 -11.448668 -0.999999 0.000978 0.000978 
-257.500000 -11.951599 -27.506939 -0.999999 0.000978 0.000978 
-257.500000 -8.869232 -24.947680 -0.999999 0.000978 0.000978 
-257.500000 -175.576996 -26.514053 -0.999999 0.000978 0.000978 
-257.500000 -155.692108 -8.309771 -0.999999 0.000978 0.000978 
-257.500000 -167.856537 -19.890419 -0.999999 0.000978 0.000978 
-257.500000 -147.544922 -24.843403 -0.999999 0.000978 0.000978 
-257.500000 -79.200607 -12.746487 -0.999999 0.000978 0.000978 
-257.500000 -205.570877 -23.175611 -0.999999 0.000978 0.000978 
-257.500000 -51.607834 -24.066170 -0.999999 0.000978 0.000978 
-257.500000 -74.520752 -26.244089 -0.999999 0.000978 0.000978 
-257.500000 -202.488785 -13.630714 -0.999999 0.000978 0.000978 
-257.500000 -170.112213 -4.180779 -0.999999 0.000978 0.000978 
-257.500000 -135.291016 -22.402210 -0.999999 0.000978 0.000978 
-257.500000 -158.465103 -23.244675 -0.999999 0.000978 0.000978 
-257.500000 -26.393906 -20.372946 -0.999999 0.000978 0.000978 
-257.500000 -103.293617 -20.021614 -0.999999 0.000978 0.000978 
-257.500000 -158.763184 -8.351482 -0.999999 0.000978 0.000978 
-257.500000 -157.872696 -19.169624 -0.999999 0.000978 0.000978 
-257.500000 -47.095795 -16.365894 -0.999999 0.000978 0.000978 
-257.500000 7.597656 -23.579880 -0.999999 0.000978 0.000978 
-257.500000 -153.424438 -27.085613 -0.999999 0.000978 0.000978 
-257.500000 22.090485 -28.718443 -0.999999 0.000978 0.000978 
-257.500000 7.421249 -29.488491 -0.999999 0.000978 0.000978 
-257.500000 -123.092163 -18.564711 -0.999999 0.000978 0.000978 
-257.500000 -207.545456 -18.540123 -0.999999 0.000978 0.000978 
-257.500000 -17.802643 -25.615786 -0.999999 0.000978 0.000978 
-257.500000 -40.109772 -21.384436 -0.999999 0.000978 0.000978 
-257.500000 -184.515167 -3.948408 -0.999999 0.000978 0.000978 
-257.500000 -180.762878 -13.673424 -0.999999 0.000978 0.000978 
-257.500000 -26.292587 -22.060843 -0.999999 0.000978 0.000978 
-257.500000 -209.791290 -7.135899 -0.999999 0.000978 0.000978 
-257.500000 -34.677734 -19.307714 -0.999999 0.000978 0.000978 
-257.500000 -130.359558 -13.845705 -0.999999 0.000978 0.000978 
-257.500000 -50.565552 -16.582603 -0.999999 0.000978 0.000978 
-257.500000 27.626877 -22.930550 -0.999999 0.000978 0.000978 
-257.500000 -203.726578 -21.454380 -0.999999 0.000978 0.000978 
-257.500000 -54.640671 -26.024864 -0.999999 0.000978 0.000978 
-257.500000 -118.677483 -28.361347 -0.999999 0.000978 0.000978 
-257.500000 -171.371155 -7.002924 -0.999999 0.000978 0.000978 
-257.500000 -33.031631 -20.613892 -0.999999 0.000978 0.000978 
-257.500000 -13.478683 -25.561724 -0.999999 0.000978 0.000978 
-257.500000 -8.499985 -28.025225 -0.999999 0.000978 0.000978 
-257.500000 -162.004089 -23.344784 -0.999999 0.000978 0.000978 
-257.500000 -149.838486 -21.001415 -0.999999 0.000978 0.000978 
-257.500000 -4.502243 -29.487705 -0.999999 0.000978 0.000978 
-257.500000 -119.026993 -10.676254 -0.999999 0.000978 0.000978 
-257.500000 -129.653870 -12.180279 -0.999999 0.000978 0.000978 
-257.500000 -122.052719 -10.812582 -0.999999 0.000978 0.000978 
-257.500000 -198.285980 -25.829250 -0.999999 0.000978 0.000978 
-257.500000 -53.870605 -18.885834 -0.999999 0.000978 0.000978 
-257.500000 26.120850 -29.173985 -0.999999 0.000978 0.000978 
-257.500000 -209.916260 -29.257771 -0.999999 0.000978 0.000978 
-257.500000 -20.518021 -28.487612 -0.999999 0.000978 0.000978 
-257.500000 -145.328842 -11.419363 -0.999999 0.000978 0.000978 
-257.500000 -94.100723 -16.052113 -0.999999 0.000978 0.000978 
-257.500000 -25.507126 -27.407957 -0.999999 0.000978 0.000978 
-257.500000 -194.430481 -3.713490 -0.999999 0.000978 0.000978 
-257.500000 -142.588516 -8.681770 -0.999999 0.000978 0.000978 
-257.500000 -138.419556 -26.301527 -0.999999 0.000978 0.000978 
-257.500000 -146.655090 -24.576710 -0.999999 0.000978 0.000978 
-257.500000 -81.312469 -16.210253 -0.999999 0.000978 0.000978 
-257.500000 14.765152 -25.458351 -0.999999 0.000978 0.000978 
-257.500000 -101.079750 -23.171892 -0.999999 0.000978 0.000978 
-257.500000 -96.779297 -26.634924 -0.999999 0.000978 0.000978 
-257.500000 -176.781616 -14.887635 -0.999999 0.000978 0.000978 
-257.500000 42.293686 -26.169327 -0.999999 0.000978 0.000978 
-257.500000 -206.167755 -15.145542 -0.999999 0.000978 0.000978 
-257.500000 -140.773056 -8.680225 -0.999999 0.000978 0.000978 
-257.500000 -121.130341 -15.041104 -0.999999 0.000978 0.000978 
-257.500000 -93.619476 -26.011618 -0.999999 0.000978 0.000978 
-257.500000 -107.723801 -27.576303 -0.999999 0.000978 0.000978 
-257.500000 -109.067299 -20.391361 -0.999999 0.000978 0.000978 
-257.500000 12.907227 -28.700268 -0.999999 0.000978 0.000978 
-257.500000 -128.653687 -19.355099 -0.999999 0.000978 0.000978 
-257.500000 34.359055 -29.606171 -0.999999 0.000978 0.000978 
-257.500000 -191.735016 -17.313883 -0.999999 0.000978 0.000978 
-257.500000 -165.443970 -18.570370 -0.999999 0.000978 0.000978 
-257.500000 -191.107040 -20.235966 -0.999999 0.000978 0.000978 
-257.500000 -187.389084 -15.591083 -0.999999 0.000978 0.000978 
-257.500000 -189.708557 -14.219320 -0.999999 0.000978 0.000978 
-257.500000 -187.593109 -19.511326 -0.999999 0.000978 0.000978 
-257.500000 -13.623749 -27.865196 -0.999999 0.000978 0.000978 
-257.500000 -89.001770 -19.164692 -0.999999 0.000978 0.000978 
-257.500000 -86.185905 -16.838303 -0.999999 0.000978 0.000978 
-257.500000 94.299164 -29.896404 -0.999999 0.000978 0.000978 
-257.500000 -130.023880 -13.706108 -0.999999 0.000978 0.000978 
-257.500000 -18.033569 -25.874180 -0.999999 0.000978 0.000978 
-257.500000 -137.429718 -9.410120 -0.999999 0.000978 0.000978 
-257.500000 -172.423218 -22.979673 -0.999999 0.000978 0.000978 
-257.500000 -83.451553 -16.448200 -0.999999 0.000978 0.000978 
-257.500000 -130.984451 -17.560125 -0.999999 0.000978 0.000978 
-257.500000 -15.960022 -22.487795 -0.999999 0.000978 0.000978 
-257.500000 -8.908630 -29.306107 -0.999999 0.000978 0.000978 
-257.500000 -171.292160 -19.944473 -0.999999 0.000978 0.000978 
-257.500000 -179.566254 -7.138172 -0.999999 0.000978 0.000978 
-257.500000 -183.684753 -10.865028 -0.999999 0.000978 0.000978 
-257.500000 -74.878326 -21.020199 -0.999999 0.000978 0.000978 
-257.500000 -78.860504 -22.056587 -0.999999 0.000978 0.000978 
-257.500000 -201.341751 -8.664328 -0.999999 0.000978 0.000978 
-257.500000 -174.755829 -5.830187 -0.999999 0.000978 0.000978 
-257.500000 -80.148041 -19.113756 -0.999999 0.000978 0.000978 
-257.500000 -168.095825 -12.667767 -0.999999 0.000978 0.000978 
-257.500000 -47.630554 -26.059643 -0.999999 0.000978 0.000978 
-257.500000 -189.846069 -7.275194 -0.999999 0.000978 0.000978 
-257.500000 -40.215088 -19.201958 -0.999999 0.000978 0.000978 
-257.500000 -0.001556 -23.073298 -0.999999 0.000978 0.000978 
-257.500000 -128.677856 -24.322985 -0.999999 0.000978 0.000978 
-257.500000 -131.733109 -26.229263 -0.999999 0.000978 0.000978 
-257.500000 -158.991760 -27.356352 -0.999999 0.000978 0.000978 
-257.500000 -177.623962 -23.955158 -0.999999 0.000978 0.000978 
-257.500000 -178.937424 -12.679964 -0.999999 0.000978 0.000978 
-257.500000 6.484802 -25.443493 -0.999999 0.000978 0.000978 
-257.500000 -169.025955 -18.427080 -0.999999 0.000978 0.000978 
-257.500000 69.474854 -29.680849 -0.999999 0.000978 0.000978 
-257.500000 -199.390396 -23.042904 -0.999999 0.000978 0.000978 
-257.500000 -93.737732 -22.100471 -0.999999 0.000978 0.000978 
-257.500000 -132.068237 -22.326002 -0.999999 0.000978 0.000978 
-257.500000 88.769165 -28.659725 -0.999999 0.000978 0.000978 
-257.500000 -156.612854 -23.502953 -0.999999 0.000978 0.000978 
-257.500000 -182.836533 -18.938869 -0.999999 0.000978 0.000978 
-257.500000 55.503510 -29.320110 -0.999999 0.000978 0.000978 
-257.500000 -40.621185 -29.311337 -0.999999 0.000978 0.000978 
-257.500000 -209.253418 -13.514206 -0.999999 0.000978 0.000978 
-257.500000 -124.504326 -28.558475 -0.999999 0.000978 0.000978 
-257.500000 18.119965 -27.153893 -0.999999 0.000978 0.000978 
-257.500000 -198.080414 -27.861259 -0.999999 0.000978 0.000978 
-257.500000 -144.591827 -18.420815 -0.999999 0.000978 0.000978 
-257.500000 -88.904610 -11.790829 -0.999999 0.000978 0.000978 
-257.500000 -89.319336 -15.467095 -0.999999 0.000978 0.000978 
-257.500000 -194.228760 -5.575171 -0.999999 0.000978 0.000978 
-257.500000 -132.524292 -24.446604 -0.999999 0.000978 0.000978 
-257.500000 -61.533478 -24.395966 -0.999999 0.000978 0.000978 
-257.500000 -124.117203 -12.806355 -0.999999 0.000978 0.000978 
-257.500000 -108.765930 -25.098051 -0.999999 0.000978 0.000978 
-257.500000 -63.423431 -17.185429 -0.999999 0.000978 0.000978 
-257.500000 6.967010 -23.293652 -0.999999 0.000978 0.000978 
-257.500000 -92.597672 -23.706776 -0.999999 0.000978 0.000978 
-257.500000 -195.516922 -2.675798 -0.999999 0.000978 0.000978 
-257.500000 -158.612183 -23.591476 -0.999999 0.000978 0.000978 
-257.500000 47.475098 -26.759604 -0.999999 0.000978 0.000978 
-257.500000 -156.294968 -9.729053 -0.999999 0.000978 0.000978 
-257.500000 -123.344009 -12.011156 -0.999999 0.000978 0.000978 
-257.500000 -162.195053 -22.738831 -0.999999 0.000978 0.000978 
-257.500000 -31.462921 -22.755348 -0.999999 0.000978 0.000978 
-257.500000 -95.697693 -14.205603 -0.999999 0.000978 0.000978 
-257.500000 -152.109741 -15.386889 -0.999999 0.000978 0.000978 
-257.500000 -154.392761 -27.572811 -0.999999 0.000978 0.000978 
-257.500000 -124.379227 -21.809914 -0.999999 0.000978 0.000978 
-257.500000 -207.131638 -21.582008 -0.999999 0.000978 0.000978 
-257.500000 9.723343 -24.743996 -0.999999 0.000978 0.000978 
-257.500000 -72.210724 -14.163903 -0.999999 0.000978 0.000978 
-257.500000 -127.839279 -14.856094 -0.999999 0.000978 0.000978 
-257.500000 -132.363647 -25.120094 -0.999999 0.000978 0.000978 
-257.500000 -185.392532 -25.990412 -0.999999 0.000978 0.000978 
-257.500000 -211.011536 -28.216322 -0.999999 0.000978 0.000978 
-257.500000 -144.146881 -24.725050 -0.999999 0.000978 0.000978 
-257.500000 -127.187744 -16.580454 -0.999999 0.000978 0.000978 
-257.500000 -19.021179 -24.755539 -0.999999 0.000978 0.000978 
-257.500000 -169.923004 -26.033461 -0.999999 0.000978 0.000978 
-257.500000 -22.521240 -29.771536 -0.999999 0.000978 0.000978 
-257.500000 -43.622818 -28.005596 -0.999999 0.000978 0.000978 
-257.500000 -144.281311 -23.651146 -0.999999 0.000978 0.000978 
-257.500000 -196.415207 -20.059231 -0.999999 0.000978 0.000978 
-257.500000 91.563141 -28.518654 -0.999999 0.000978 0.000978 
-257.500000 -65.884491 -29.744390 -0.999999 0.000978 0.000978 
-257.500000 -188.127991 -26.145090 -0.999999 0.000978 0.000978 
-257.500000 -8.289612 -25.536814 -0.999999 0.000978 0.000978 
-257.500000 -175.801788 -20.291311 -0.999999 0.000978 0.000978 
-257.500000 4.033875 -29.800972 -0.999999 0.000978 0.000978 
-257.500000 -192.866928 -25.758434 -0.999999 0.000978 0.000978 
-257.500000 45.992004 -25.100250 -0.999999 0.000978 0.000978 
-257.500000 -177.115646 -10.405943 -0.999999 0.000978 0.000978 
-257.500000 31.782303 -27.117531 -0.999999 0.000978 0.000978 
-257.500000 -149.433197 -11.353439 -0.999999 0.000978 0.000978 
-257.500000 -11.743912 -25.015430 -0.999999 0.000978 0.000978 
-257.500000 -188.819122 -24.331106 -0.999999 0.000978 0.000978 
-257.500000 -165.272522 -7.073742 -0.999999 0.000978 0.000978 
-257.500000 -58.325989 -15.301331 -0.999999 0.000978 0.000978 
-257.500000 -165.657074 -19.508190 -0.999999 0.000978 0.000978 
-257.500000 -3.864212 -23.047398 -0.999999 0.000978 0.000978 
-257.500000 -174.693329 -14.510325 -0.999999 0.000978 0.000978 
-257.500000 37.968460 -25.844402 -0.999999 0.000978 0.000978 
-257.500000 -58.359131 -22.863665 -0.999999 0.000978 0.000978 
-257.500000 -66.577744 -23.917255 -0.999999 0.000978 0.000978 
-257.500000 -164.208817 -7.306894 -0.999999 0.000978 0.000978 
-257.500000 -91.272774 -12.623960 -0.999999 0.000978 0.000978 
-257.500000 -163.979477 -12.434294 -0.999999 0.000978 0.000978 
-257.500000 -128.318909 -9.081167 -0.999999 0.000978 0.000978 
-257.500000 -168.546631 -9.539249 -0.999999 0.000978 0.000978 
-257.500000 -131.423889 -17.176569 -0.999999 0.000978 0.000978 
-257.500000 -36.309967 -17.172108 -0.999999 0.000978 0.000978 
-257.500000 -119.974976 -9.650368 -0.999999 0.000978 0.000978 
-257.500000 71.883545 -11.130389 -0.999999 0.000978 0.000978 
-257.500000 66.457054 -8.232359 -0.999999 0.000978 0.000978 
-257.500000 -133.466202 -1.435101 -0.999999 0.000978 0.000978 
-257.500000 -14.613495 -9.410170 -0.999999 0.000978 0.000978 
-257.500000 77.955460 -18.290337 -0.999999 0.000978 0.000978 
-257.500000 20.157043 -8.214306 -0.999999 0.000978 0.000978 
-257.500000 67.100388 -0.243755 -0.999999 0.000978 0.000978 
-257.500000 -143.119064 -5.467634 -0.999999 0.000978 0.000978 
-257.500000 -44.489532 -5.670732 -0.999999 0.000978 0.000978 
-257.500000 6.392662 -15.597409 -0.999999 0.000978 0.000978 
-257.500000 -105.167984 -0.018152 -0.999999 0.000978 0.000978 
-257.500000 42.709297 -22.107697 -0.999999 0.000978 0.000978 
-257.500000 99.324387 -20.281240 -0.999999 0.000978 0.000978 
-257.500000 -125.325790 -5.569118 -0.999999 0.000978 0.000978 
-257.500000 -15.624886 -4.510608 -0.999999 0.000978 0.000978 
-257.500000 86.344292 -13.649063 -0.999999 0.000978 0.000978 
-257.500000 71.047607 -9.596794 -0.999999 0.000978 0.000978 
-257.500000 41.836380 -12.828403 -0.999999 0.000978 0.000978 
-257.500000 66.548866 -24.394138 -0.999999 0.000978 0.000978 
-257.500000 49.421211 -14.585435 -0.999999 0.000978 0.000978 
-257.500000 20.074081 -4.930792 -0.999999 0.000978 0.000978 
-257.500000 -5.109718 -6.863117 -0.999999 0.000978 0.000978 
-257.500000 44.297329 -21.017851 -0.999999 0.000978 0.000978 
-257.500000 87.986168 -24.190510 -0.999999 0.000978 0.000978 
-257.500000 87.443939 -23.478382 -0.999999 0.000978 0.000978 
-257.500000 90.222008 -0.430769 -0.999999 0.000978 0.000978 
-257.500000 -64.832535 -11.884709 -0.999999 0.000978 0.000978 
-257.500000 10.521431 -16.260281 -0.999999 0.000978 0.000978 
-257.500000 61.067787 -5.889339 -0.999999 0.000978 0.000978 
-257.500000 -44.896255 -11.000063 -0.999999 0.000978 0.000978 
-257.500000 -21.092575 -1.001816 -0.999999 0.000978 0.000978 
-257.500000 -55.359192 -5.020625 -0.999999 0.000978 0.000978 
-257.500000 -33.543182 -4.054214 -0.999999 0.000978 0.000978 
-257.500000 53.027195 -20.556185 -0.999999 0.000978 0.000978 
-257.500000 -33.580795 -5.295410 -0.999999 0.000978 0.000978 
-257.500000 -140.849747 -1.171944 -0.999999 0.000978 0.000978 
-257.500000 -147.461624 -2.161729 -0.999999 0.000978 0.000978 
-257.500000 -48.526535 -4.132941 -0.999999 0.000978 0.000978 
-257.500000 55.003208 -18.216572 -0.999999 0.000978 0.000978 
-257.500000 -114.273315 -2.191166 -0.999999 0.000978 0.000978 
-257.500000 97.421074 -11.683022 -0.999999 0.000978 0.000978 
-257.500000 5.620872 -16.060228 -0.999999 0.000978 0.000978 
-257.500000 -82.790955 -7.688664 -0.999999 0.000978 0.000978 
-257.500000 -95.404449 -0.200290 -0.999999 0.000978 0.000978 
-257.500000 -1.963638 -0.276123 -0.999999 0.000978 0.000978 
-257.500000 14.975746 -17.918686 -0.999999 0.000978 0.000978 
-257.500000 65.438919 -16.551411 -0.999999 0.000978 0.000978 
-257.500000 88.683594 -23.407434 -0.999999 0.000978 0.000978 
-257.500000 -24.710495 -4.179710 -0.999999 0.000978 0.000978 
-257.500000 100.260597 -20.791672 -0.999999 0.000978 0.000978 
-257.500000 77.002823 -2.476749 -0.999999 0.000978 0.000978 
-257.500000 38.751724 -9.194829 -0.999999 0.000978 0.000978 
-257.500000 -35.815582 -2.863255 -0.999999 0.000978 0.000978 
-257.500000 89.724663 -20.766981 -0.999999 0.000978 0.000978 
-257.500000 -45.879257 -6.668142 -0.999999 0.000978 0.000978 
-257.500000 -23.045563 -2.371495 -0.999999 0.000978 0.000978 
-257.500000 49.637993 -10.773987 -0.999999 0.000978 0.000978 
-257.500000 87.338585 -3.473991 -0.999999 0.000978 0.000978 
-257.500000 36.705597 -19.254126 -0.999999 0.000978 0.000978 
-257.500000 87.236496 -21.497234 -0.999999 0.000978 0.000978 
-257.500000 29.770485 -22.632133 -0.999999 0.000978 0.000978 
-257.500000 20.375916 -8.173517 -0.999999 0.000978 0.000978 
-257.500000 1.799591 -4.830313 -0.999999 0.000978 0.000978 
-257.500000 -105.107605 -3.506958 -0.999999 0.000978 0.000978 
-257.500000 100.811508 -15.270549 -0.999999 0.000978 0.000978 
-257.500000 -54.797516 -12.235882 -0.999999 0.000978 0.000978 
-257.500000 -69.806305 -10.051517 -0.999999 0.000978 0.000978 
-257.500000 18.271866 -7.787734 -0.999999 0.000978 0.000978 
-257.500000 93.142403 -4.836664 -0.999999 0.000978 0.000978 
-257.500000 -28.003937 -1.530722 -0.999999 0.000978 0.000978 
-257.500000 77.129059 -23.346058 -0.999999 0.000978 0.000978 
-257.500000 -4.076401 -17.408768 -0.999999 0.000978 0.000978 
-257.500000 21.716354 -2.322193 -0.999999 0.000978 0.000978 
-257.500000 87.530952 -10.044889 -0.999999 0.000978 0.000978 
-257.500000 103.455498 -0.579224 -0.999999 0.000978 0.000978 
-257.500000 64.839142 -22.972269 -0.999999 0.000978 0.000978 
-257.500000 59.264530 -5.552509 -0.999999 0.000978 0.000978 
-257.500000 61.590256 -10.198552 -0.999999 0.000978 0.000978 
-257.500000 -59.315170 -9.191566 -0.999999 0.000978 0.000978 
-257.500000 -60.863251 -6.768066 -0.999999 0.000978 0.000978 
-257.500000 35.809265 -17.238909 -0.999999 0.000978 0.000978 
-257.500000 0.565231 -1.975735 -0.999999 0.000978 0.000978 
-257.500000 87.865334 -2.193335 -0.999999 0.000978 0.000978 
-257.500000 63.948765 -9.816282 -0.999999 0.000978 0.000978 
-257.500000 -39.773712 -3.000625 -0.999999 0.000978 0.000978 
-257.500000 98.563522 -0.378334 -0.999999 0.000978 0.000978 
-257.500000 -4.140556 -2.210636 -0.999999 0.000978 0.000978 
-257.500000 96.532944 -2.915533 -0.999999 0.000978 0.000978 
-257.500000 44.935913 -6.792744 -0.999999 0.000978 0.000978 
-257.500000 39.657761 -19.517786 -0.999999 0.000978 0.000978 
-257.500000 -78.536072 -6.640116 -0.999999 0.000978 0.000978 
-257.500000 77.173744 -1.190876 -0.999999 0.000978 0.000978 
-257.500000 -134.844025 -6.828401 -0.999999 0.000978 0.000978 
-257.500000 10.090424 -8.152739 -0.999999 0.000978 0.000978 
-257.500000 -74.441666 -12.216707 -0.999999 0.000978 0.000978 
-257.500000 95.985130 -23.617432 -0.999999 0.000978 0.000978 
-257.500000 -182.626617 -1.386110 -0.999999 0.000978 0.000978 
-257.500000 -72.828888 -9.839773 -0.999999 0.000978 0.000978 
-257.500000 44.711540 -10.127596 -0.999999 0.000978 0.000978 
-257.500000 40.711891 -2.770308 -0.999999 0.000978 0.000978 
-257.500000 -165.284454 -1.191142 -0.999999 0.000978 0.000978 
-257.500000 -157.976654 -3.246005 -0.999999 0.000978 0.000978 
-257.500000 -26.260056 -6.950674 -0.999999 0.000978 0.000978 
-257.500000 -146.974365 -0.984922 -0.999999 0.000978 0.000978 
-257.500000 107.401749 -21.436077 -0.999999 0.000978 0.000978 
-257.500000 85.700012 -0.789419 -0.999999 0.000978 0.000978 
-257.500000 -35.826538 -14.704468 -0.999999 0.000978 0.000978 
-257.500000 5.630386 -13.736889 -0.999999 0.000978 0.000978 
-257.500000 -139.649689 -3.226096 -0.999999 0.000978 0.000978 
-257.500000 86.776855 -15.425284 -0.999999 0.000978 0.000978 
-257.500000 29.651306 -3.691467 -0.999999 0.000978 0.000978 
-257.500000 56.022091 -14.897635 -0.999999 0.000978 0.000978 
-257.500000 65.669861 -2.183809 -0.999999 0.000978 0.000978 
-257.500000 -89.395432 -6.281517 -0.999999 0.000978 0.000978 
-257.500000 84.782715 -11.679525 -0.999999 0.000978 0.000978 
-257.500000 -75.891739 -3.401508 -0.999999 0.000978 0.000978 
-257.500000 67.900146 -4.111372 -0.999999 0.000978 0.000978 
-257.500000 45.506397 -23.392323 -0.999999 0.000978 0.000978 
-257.500000 -47.778397 -1.444199 -0.999999 0.000978 0.000978 
-257.500000 95.988014 -21.574203 -0.999999 0.000978 0.000978 
-257.500000 -31.645844 -13.810719 -0.999999 0.000978 0.000978 
-257.500000 -116.541275 -2.584977 -0.999999 0.000978 0.000978 
-257.500000 88.850441 -1.757858 -0.999999 0.000978 0.000978 
-257.500000 4.792671 -18.223125 -0.999999 0.000978 0.000978 
-257.500000 -96.599915 -5.393750 -0.999999 0.000978 0.000978 
-257.500000 -2.314232 -9.407689 -0.999999 0.000978 0.000978 
-257.500000 74.753044 -8.604332 -0.999999 0.000978 0.000978 
-257.500000 -5.084885 -1.652254 -0.999999 0.000978 0.000978 
-257.500000 -80.582260 -8.549131 -0.999999 0.000978 0.000978 
-257.500000 -117.612930 -3.743362 -0.999999 0.000978 0.000978 
-257.500000 -93.432312 -5.575952 -0.999999 0.000978 0.000978 
-257.500000 -92.699829 -2.654041 -0.999999 0.000978 0.000978 
-257.500000 41.623825 -19.637369 -0.999999 0.000978 0.000978 
-257.500000 -144.869934 -1.225967 -0.999999 0.000978 0.000978 
-257.500000 -0.284088 -13.239647 -0.999999 0.000978 0.000978 
-257.500000 -54.598007 -2.952468 -0.999999 0.000978 0.000978 
-257.500000 91.303757 -6.951300 -0.999999 0.000978 0.000978 
-257.500000 6.538773 -1.850607 -0.999999 0.000978 0.000978 
-257.500000 -87.861633 -0.471446 -0.999999 0.000978 0.000978 
-257.500000 -7.067329 -0.810978 -0.999999 0.000978 0.000978 
-257.500000 80.107353 -9.834751 -0.999999 0.000978 0.000978 
-257.500000 -114.579315 -0.082143 -0.999999 0.000978 0.000978 
-257.500000 -17.031212 -14.790033 -0.999999 0.000978 0.000978 
-257.500000 -83.083130 -5.047556 -0.999999 0.000978 0.000978 
-257.500000 13.852997 -14.898937 -0.999999 0.000978 0.000978 
-257.500000 -75.763870 -6.626467 -0.999999 0.000978 0.000978 
-257.500000 104.044388 -6.025696 -0.999999 0.000978 0.000978 
-257.500000 9.952278 -7.805516 -0.999999 0.000978 0.000978 
-257.500000 -42.362106 -9.687287 -0.999999 0.000978 0.000978 
-257.500000 -169.704803 -1.950262 -0.999999 0.000978 0.000978 
-257.500000 33.446510 -15.697771 -0.999999 0.000978 0.000978 
-257.500000 15.783913 -16.226616 -0.999999 0.000978 0.000978 
-257.500000 29.606483 -21.034269 -0.999999 0.000978 0.000978 
-257.500000 4.290588 -13.625476 -0.999999 0.000978 0.000978 
-257.500000 52.660004 -16.375420 -0.999999 0.000978 0.000978 
-257.500000 42.222610 -23.846628 -0.999999 0.000978 0.000978 
-257.500000 101.168831 -3.396151 -0.999999 0.000978 0.000978 
-257.500000 -87.113983 -11.593605 -0.999999 0.000978 0.000978 
-257.500000 -89.557663 -4.996535 -0.999999 0.000978 0.000978 
-257.500000 -78.734131 -5.632607 -0.999999 0.000978 0.000978 
-257.500000 -55.729156 -13.261799 -0.999999 0.000978 0.000978 
-257.500000 -55.452148 -2.857282 -0.999999 0.000978 0.000978 
-257.500000 15.025490 -0.016710 -0.999999 0.000978 0.000978 
-257.500000 73.528763 -12.461224 -0.999999 0.000978 0.000978 
-257.500000 -116.594925 -6.302445 -0.999999 0.000978 0.000978 
-257.500000 13.569138 -17.549734 -0.999999 0.000978 0.000978 
-257.500000 79.094704 -21.049730 -0.999999 0.000978 0.000978 
-257.500000 -70.656616 -8.579205 -0.999999 0.000978 0.000978 
-257.500000 -103.645157 -5.362382 -0.999999 0.000978 0.000978 
-257.500000 77.022110 -22.615612 -0.999999 0.000978 0.000978 
-257.500000 50.425934 -15.075903 -0.999999 0.000978 0.000978 
-257.500000 82.682060 -22.677023 -0.999999 0.000978 0.000978 
-257.500000 78.867691 -21.547148 -0.999999 0.000978 0.000978 
-257.500000 -37.371979 -7.616426 -0.999999 0.000978 0.000978 
-257.500000 -4.405907 -8.098324 -0.999999 0.000978 0.000978 
-257.500000 79.697266 -16.555206 -0.999999 0.000978 0.000978 
-257.500000 11.196091 -3.181093 -0.999999 0.000978 0.000978 
-257.500000 25.815590 -16.564770 -0.999999 0.000978 0.000978 
-257.500000 -127.799744 -6.777123 -0.999999 0.000978 0.000978 
-257.500000 98.103798 -13.597812 -0.999999 0.000978 0.000978 
-257.500000 89.283401 -16.897038 -0.999999 0.000978 0.000978 
-257.500000 56.842773 -12.893419 -0.999999 0.000978 0.000978 
-257.500000 87.798248 -28.103428 -0.999999 0.000978 0.000978 
-257.500000 -95.401642 -4.717423 -0.999999 0.000978 0.000978 
-257.500000 61.966370 -22.443592 -0.999999 0.000978 0.000978 
-257.500000 -73.955200 -4.008404 -0.999999 0.000978 0.000978 
-257.500000 -44.663055 -10.669043 -0.999999 0.000978 0.000978 
-257.500000 41.793518 -11.188782 -0.999999 0.000978 0.000978 
-257.500000 -100.713287 -2.628604 -0.999999 0.000978 0.000978 
-257.500000 77.995422 -9.409620 -0.999999 0.000978 0.000978 
-257.500000 -10.433266 -12.462179 -0.999999 0.000978 0.000978 
-257.500000 -18.884041 -15.938765 -0.999999 0.000978 0.000978 
-257.500000 -97.891449 -7.115206 -0.999999 0.000978 0.000978 
-257.500000 99.661789 -4.426262 -0.999999 0.000978 0.000978 
-257.500000 103.145462 -7.916346 -0.999999 0.000978 0.000978 
-257.500000 101.467064 -13.819836 -0.999999 0.000978 0.000978 
-257.500000 -17.458633 -9.928199 -0.999999 0.000978 0.000978 
-257.500000 -93.836533 -3.801517 -0.999999 0.000978 0.000978 
-257.500000 -0.653259 -10.557648 -0.999999 0.000978 0.000978 
-257.500000 -77.099823 -10.357594 -0.999999 0.000978 0.000978 
-257.500000 11.118622 -16.503876 -0.999999 0.000978 0.000978 
-257.500000 39.276833 -2.268774 -0.999999 0.000978 0.000978 
-257.500000 49.712948 -16.956982 -0.999999 0.000978 0.000978 
-257.500000 63.147873 -22.305090 -0.999999 0.000978 0.000978 
-257.500000 90.124100 -20.220539 -0.999999 0.000978 0.000978 
-257.500000 -146.217773 -5.468838 -0.999999 0.000978 0.000978 
-257.500000 -45.839325 -2.862306 -0.999999 0.000978 0.000978 
-257.500000 54.844933 -11.795803 -0.999999 0.000978 0.000978 
-257.500000 39.111389 -18.040342 -0.999999 0.000978 0.000978 
-257.500000 86.728249 -12.222793 -0.999999 0.000978 0.000978 
-257.500000 16.887291 -11.757455 -0.999999 0.000978 0.000978 
-257.500000 -101.739029 -9.816412 -0.999999 0.000978 0.000978 
-257.500000 -46.755051 -10.247807 -0.999999 0.000978 0.000978 
-257.500000 78.479233 -22.146530 -0.999999 0.000978 0.000978 
-257.500000 48.136543 -4.642923 -0.999999 0.000978 0.000978 
-257.500000 87.662315 -24.785482 -0.999999 0.000978 0.000978 
-257.500000 -62.485199 -7.289929 -0.999999 0.000978 0.000978 
-257.500000 -108.081909 -5.131866 -0.999999 0.000978 0.000978 
-257.500000 21.468994 -0.277622 -0.999999 0.000978 0.000978 
-257.500000 84.737679 -17.244446 -0.999999 0.000978 0.000978 
-257.500000 84.961472 -17.270664 -0.999999 0.000978 0.000978 
-257.500000 92.476173 -16.029903 -0.999999 0.000978 0.000978 
-257.500000 18.152245 -18.254177 -0.999999 0.000978 0.000978 
-257.500000 102.142250 -19.825657 -0.999999 0.000978 0.000978 
-257.500000 5.008102 -16.627907 -0.999999 0.000978 0.000978 
-257.500000 63.189907 -15.840881 -0.999999 0.000978 0.000978 
-257.500000 -129.384338 -0.036792 -0.999999 0.000978 0.000978 
-257.500000 86.730995 -17.212307 -0.999999 0.000978 0.000978 
-257.500000 87.901749 -22.822811 -0.999999 0.000978 0.000978 
-257.500000 29.547195 -14.446942 -0.999999 0.000978 0.000978 
-257.500000 -82.429062 -4.452673 -0.999999 0.000978 0.000978 
-257.500000 51.024647 -24.110640 -0.999999 0.000978 0.000978 
-257.500000 -87.256500 -10.967748 -0.999999 0.000978 0.000978 
-257.500000 -31.857315 -16.663090 -0.999999 0.000978 0.000978 
-257.500000 37.461311 -14.108725 -0.999999 0.000978 0.000978 
-257.500000 -77.017914 -9.154150 -0.999999 0.000978 0.000978 
-257.500000 78.374977 -5.996508 -0.999999 0.000978 0.000978 
-257.500000 -45.198853 -6.532033 -0.999999 0.000978 0.000978 
-257.500000 -160.208679 -0.495568 -0.999999 0.000978 0.000978 
-257.500000 -52.575394 -5.225295 -0.999999 0.000978 0.000978 
-257.500000 94.838486 -21.918793 -0.999999 0.000978 0.000978 
-257.500000 -11.269501 -18.575626 -0.999999 0.000978 0.000978 
-257.500000 79.408264 -15.677454 -0.999999 0.000978 0.000978 
-257.500000 98.478081 -25.739679 -0.999999 0.000978 0.000978 
-257.500000 83.900101 -27.246140 -0.999999 0.000978 0.000978 
-257.500000 61.317482 -22.259008 -0.999999 0.000978 0.000978 
-257.500000 -93.671936 -3.545291 -0.999999 0.000978 0.000978 
-257.500000 86.145462 -1.484943 -0.999999 0.000978 0.000978 
-257.500000 20.662964 -0.905540 -0.999999 0.000978 0.000978 
-257.500000 49.939011 -13.273004 -0.999999 0.000978 0.000978 
-257.500000 -183.397919 -2.070878 -0.999999 0.000978 0.000978 
-257.500000 -191.429474 -1.675903 -0.999999 0.000978 0.000978 
-257.500000 -19.383408 -11.731133 -0.999999 0.000978 0.000978 
-257.500000 83.577682 -15.766081 -0.999999 0.000978 0.000978 
-257.500000 14.206375 -1.921021 -0.999999 0.000978 0.000978 
-257.500000 73.532074 -23.453047 -0.999999 0.000978 0.000978 
-257.500000 37.856628 -7.399601 -0.999999 0.000978 0.000978 
-257.500000 -74.284073 -9.005020 -0.999999 0.000978 0.000978 
-257.500000 31.141205 -14.749816 -0.999999 0.000978 0.000978 
-257.500000 -108.849487 -6.048121 -0.999999 0.000978 0.000978 
-257.500000 15.334152 -13.128463 -0.999999 0.000978 0.000978 
-257.500000 -181.770325 -1.112039 -0.999999 0.000978 0.000978 
-257.500000 27.570724 -20.905176 -0.999999 0.000978 0.000978 
-257.500000 21.897705 -11.361915 -0.999999 0.000978 0.000978 
-257.500000 -52.237625 -8.126265 -0.999999 0.000978 0.000978 
-257.500000 70.950417 -7.529671 -0.999999 0.000978 0.000978 
