ply
format ascii 1.0
comment Created by CloudCompare v2.12.4 (Kyiv)
comment Created 2023-03-21T15:01:01
obj_info Generated by CloudCompare!
element vertex 775
property float x
property float y
property float z
property float nx
property float ny
property float nz
end_header
-117.500000 439.968323 -13.442382 -0.999999 0.000978 0.000978 
-117.500000 65.924179 33.172165 -0.999999 0.000978 0.000978 
-117.500000 64.606094 28.547291 -0.999999 0.000978 0.000978 
-117.500000 193.988983 2.764332 -0.999999 0.000978 0.000978 
-117.500000 111.444611 21.796719 -0.999999 0.000978 0.000978 
-117.500000 421.437164 -14.482514 -0.999999 0.000978 0.000978 
-117.500000 357.662781 0.977236 -0.999999 0.000978 0.000978 
-117.500000 40.147514 31.351349 -0.999999 0.000978 0.000978 
-117.500000 310.693115 5.275219 -0.999999 0.000978 0.000978 
-117.500000 15.056543 35.308449 -0.999999 0.000978 0.000978 
-117.500000 269.554901 6.718302 -0.999999 0.000978 0.000978 
-117.500000 185.594208 27.033678 -0.999999 0.000978 0.000978 
-117.500000 72.902298 34.922909 -0.999999 0.000978 0.000978 
-117.500000 24.545021 17.022984 -0.999999 0.000978 0.000978 
-117.500000 76.762077 24.486305 -0.999999 0.000978 0.000978 
-117.500000 60.060017 52.884609 -0.999999 0.000978 0.000978 
-117.500000 2.848234 32.961067 -0.999999 0.000978 0.000978 
-117.500000 171.970261 11.718460 -0.999999 0.000978 0.000978 
-117.500000 63.745628 3.802383 -0.999999 0.000978 0.000978 
-117.500000 115.088898 19.770813 -0.999999 0.000978 0.000978 
-117.500000 353.631592 -13.578959 -0.999999 0.000978 0.000978 
-117.500000 122.874916 25.213573 -0.999999 0.000978 0.000978 
-117.500000 36.439976 22.884846 -0.999999 0.000978 0.000978 
-117.500000 195.600739 -7.020695 -0.999999 0.000978 0.000978 
-117.500000 200.674637 -3.926708 -0.999999 0.000978 0.000978 
-117.500000 185.508987 -13.218143 -0.999999 0.000978 0.000978 
-117.500000 210.979187 -1.439854 -0.999999 0.000978 0.000978 
-117.500000 202.518723 25.160547 -0.999999 0.000978 0.000978 
-117.500000 233.947845 20.910093 -0.999999 0.000978 0.000978 
-117.500000 50.095928 35.493320 -0.999999 0.000978 0.000978 
-117.500000 126.006332 8.822674 -0.999999 0.000978 0.000978 
-117.500000 295.259552 -8.055664 -0.999999 0.000978 0.000978 
-117.500000 290.850922 -5.803734 -0.999999 0.000978 0.000978 
-117.500000 218.409729 -3.293535 -0.999999 0.000978 0.000978 
-117.500000 86.139313 22.287575 -0.999999 0.000978 0.000978 
-117.500000 188.414444 24.284552 -0.999999 0.000978 0.000978 
-117.500000 69.506050 9.584686 -0.999999 0.000978 0.000978 
-117.500000 125.100441 12.385679 -0.999999 0.000978 0.000978 
-117.500000 26.504681 11.025993 -0.999999 0.000978 0.000978 
-117.500000 31.699703 17.353424 -0.999999 0.000978 0.000978 
-117.500000 308.465302 -13.630707 -0.999999 0.000978 0.000978 
-117.500000 106.109451 9.996143 -0.999999 0.000978 0.000978 
-117.500000 360.565216 -1.372950 -0.999999 0.000978 0.000978 
-117.500000 47.519539 48.701118 -0.999999 0.000978 0.000978 
-117.500000 124.488686 15.063030 -0.999999 0.000978 0.000978 
-117.500000 265.577972 -3.143562 -0.999999 0.000978 0.000978 
-117.500000 111.739120 29.405161 -0.999999 0.000978 0.000978 
-117.500000 282.462280 2.824012 -0.999999 0.000978 0.000978 
-117.500000 222.999573 -5.337696 -0.999999 0.000978 0.000978 
-117.500000 90.316727 -4.098053 -0.999999 0.000978 0.000978 
-117.500000 88.437141 12.613113 -0.999999 0.000978 0.000978 
-117.500000 58.916859 48.012157 -0.999999 0.000978 0.000978 
-117.500000 335.859283 -10.388067 -0.999999 0.000978 0.000978 
-117.500000 220.397644 -11.350578 -0.999999 0.000978 0.000978 
-117.500000 111.026344 0.792015 -0.999999 0.000978 0.000978 
-117.500000 275.222656 0.988978 -0.999999 0.000978 0.000978 
-117.500000 393.297791 -12.406994 -0.999999 0.000978 0.000978 
-117.500000 251.693314 -7.081182 -0.999999 0.000978 0.000978 
-117.500000 9.491327 -2.443367 -0.999999 0.000978 0.000978 
-117.500000 219.666229 23.887941 -0.999999 0.000978 0.000978 
-117.500000 219.039505 0.812408 -0.999999 0.000978 0.000978 
-117.500000 116.815208 13.207472 -0.999999 0.000978 0.000978 
-117.500000 271.175995 -9.840626 -0.999999 0.000978 0.000978 
-117.500000 297.258240 -14.163319 -0.999999 0.000978 0.000978 
-117.500000 30.326128 53.629013 -0.999999 0.000978 0.000978 
-117.500000 103.249153 1.057961 -0.999999 0.000978 0.000978 
-117.500000 201.317657 16.971977 -0.999999 0.000978 0.000978 
-117.500000 3.722537 15.991413 -0.999999 0.000978 0.000978 
-117.500000 179.479996 -1.097252 -0.999999 0.000978 0.000978 
-117.500000 24.804991 30.537001 -0.999999 0.000978 0.000978 
-117.500000 90.206528 45.867989 -0.999999 0.000978 0.000978 
-117.500000 294.421661 3.800438 -0.999999 0.000978 0.000978 
-117.500000 174.368149 17.544701 -0.999999 0.000978 0.000978 
-117.500000 16.896027 61.882549 -0.999999 0.000978 0.000978 
-117.500000 85.064835 42.064861 -0.999999 0.000978 0.000978 
-117.500000 198.246979 -8.024151 -0.999999 0.000978 0.000978 
-117.500000 271.137390 2.248090 -0.999999 0.000978 0.000978 
-117.500000 188.392700 3.671926 -0.999999 0.000978 0.000978 
-117.500000 21.154013 18.759331 -0.999999 0.000978 0.000978 
-117.500000 195.651062 -12.936016 -0.999999 0.000978 0.000978 
-117.500000 73.369102 5.242245 -0.999999 0.000978 0.000978 
-117.500000 3.225966 46.379780 -0.999999 0.000978 0.000978 
-117.500000 107.877571 17.331369 -0.999999 0.000978 0.000978 
-117.500000 252.879501 4.686630 -0.999999 0.000978 0.000978 
-117.500000 40.268505 22.844849 -0.999999 0.000978 0.000978 
-117.500000 438.965454 -13.918991 -0.999999 0.000978 0.000978 
-117.500000 15.254263 38.206078 -0.999999 0.000978 0.000978 
-117.500000 45.040913 28.817173 -0.999999 0.000978 0.000978 
-117.500000 24.180359 14.918491 -0.999999 0.000978 0.000978 
-117.500000 145.836746 11.995737 -0.999999 0.000978 0.000978 
-117.500000 180.095322 3.529909 -0.999999 0.000978 0.000978 
-117.500000 208.964142 14.006778 -0.999999 0.000978 0.000978 
-117.500000 149.941956 34.745834 -0.999999 0.000978 0.000978 
-117.500000 62.435730 45.705730 -0.999999 0.000978 0.000978 
-117.500000 61.812290 26.527813 -0.999999 0.000978 0.000978 
-117.500000 390.143280 -11.091473 -0.999999 0.000978 0.000978 
-117.500000 378.487061 -8.886816 -0.999999 0.000978 0.000978 
-117.500000 364.877502 -10.628099 -0.999999 0.000978 0.000978 
-117.500000 129.167648 30.252392 -0.999999 0.000978 0.000978 
-117.500000 107.286209 5.613770 -0.999999 0.000978 0.000978 
-117.500000 49.216145 14.458481 -0.999999 0.000978 0.000978 
-117.500000 263.076141 14.129244 -0.999999 0.000978 0.000978 
-117.500000 51.321117 36.455883 -0.999999 0.000978 0.000978 
-117.500000 136.763672 33.075764 -0.999999 0.000978 0.000978 
-117.500000 53.338123 32.989044 -0.999999 0.000978 0.000978 
-117.500000 320.732971 -11.229385 -0.999999 0.000978 0.000978 
-117.500000 203.845001 10.144691 -0.999999 0.000978 0.000978 
-117.500000 238.934296 -12.314293 -0.999999 0.000978 0.000978 
-117.500000 118.117348 -8.430069 -0.999999 0.000978 0.000978 
-117.500000 289.096069 -4.067135 -0.999999 0.000978 0.000978 
-117.500000 48.701454 41.500847 -0.999999 0.000978 0.000978 
-117.500000 146.543579 18.119789 -0.999999 0.000978 0.000978 
-117.500000 80.301064 38.957764 -0.999999 0.000978 0.000978 
-117.500000 12.057415 39.456642 -0.999999 0.000978 0.000978 
-117.500000 228.974792 -1.954678 -0.999999 0.000978 0.000978 
-117.500000 265.835419 -13.315062 -0.999999 0.000978 0.000978 
-117.500000 114.861710 8.773533 -0.999999 0.000978 0.000978 
-117.500000 367.767090 -9.663255 -0.999999 0.000978 0.000978 
-117.500000 207.850861 18.699703 -0.999999 0.000978 0.000978 
-117.500000 104.504921 35.200768 -0.999999 0.000978 0.000978 
-117.500000 233.590988 -3.518749 -0.999999 0.000978 0.000978 
-117.500000 68.781494 6.337837 -0.999999 0.000978 0.000978 
-117.500000 154.770950 26.470598 -0.999999 0.000978 0.000978 
-117.500000 48.157524 12.450573 -0.999999 0.000978 0.000978 
-117.500000 30.051899 24.733490 -0.999999 0.000978 0.000978 
-117.500000 107.851028 7.838200 -0.999999 0.000978 0.000978 
-117.500000 1.938124 24.289608 -0.999999 0.000978 0.000978 
-117.500000 372.885895 -3.074890 -0.999999 0.000978 0.000978 
-117.500000 58.218506 -4.476818 -0.999999 0.000978 0.000978 
-117.500000 125.962196 31.028755 -0.999999 0.000978 0.000978 
-117.500000 25.458736 0.101135 -0.999999 0.000978 0.000978 
-117.500000 116.205589 40.011917 -0.999999 0.000978 0.000978 
-117.500000 265.458771 12.839617 -0.999999 0.000978 0.000978 
-117.500000 27.111526 7.255638 -0.999999 0.000978 0.000978 
-117.500000 205.798538 -1.450815 -0.999999 0.000978 0.000978 
-117.500000 156.803391 -11.500347 -0.999999 0.000978 0.000978 
-117.500000 87.867241 12.894188 -0.999999 0.000978 0.000978 
-117.500000 268.739410 8.473669 -0.999999 0.000978 0.000978 
-117.500000 82.744751 11.464485 -0.999999 0.000978 0.000978 
-117.500000 140.871140 3.363728 -0.999999 0.000978 0.000978 
-117.500000 261.603424 1.271587 -0.999999 0.000978 0.000978 
-117.500000 65.493095 27.548990 -0.999999 0.000978 0.000978 
-117.500000 258.458038 6.040800 -0.999999 0.000978 0.000978 
-117.500000 103.435875 35.618237 -0.999999 0.000978 0.000978 
-117.500000 123.815117 42.274738 -0.999999 0.000978 0.000978 
-117.500000 28.486856 40.327751 -0.999999 0.000978 0.000978 
-117.500000 95.613014 27.639282 -0.999999 0.000978 0.000978 
-117.500000 10.774630 48.610802 -0.999999 0.000978 0.000978 
-117.500000 134.053726 -6.693077 -0.999999 0.000978 0.000978 
-117.500000 206.097290 26.361217 -0.999999 0.000978 0.000978 
-117.500000 201.919968 22.129471 -0.999999 0.000978 0.000978 
-117.500000 185.346741 1.621464 -0.999999 0.000978 0.000978 
-117.500000 85.121880 -6.932442 -0.999999 0.000978 0.000978 
-117.500000 14.673511 -0.590595 -0.999999 0.000978 0.000978 
-117.500000 228.095673 7.595722 -0.999999 0.000978 0.000978 
-117.500000 231.027191 -9.604404 -0.999999 0.000978 0.000978 
-117.500000 32.616199 50.519268 -0.999999 0.000978 0.000978 
-117.500000 233.995972 -11.807598 -0.999999 0.000978 0.000978 
-117.500000 199.415802 20.702217 -0.999999 0.000978 0.000978 
-117.500000 142.257141 -14.072983 -0.999999 0.000978 0.000978 
-117.500000 0.564331 33.555416 -0.999999 0.000978 0.000978 
-117.500000 123.454086 14.555292 -0.999999 0.000978 0.000978 
-117.500000 64.114555 -9.533100 -0.999999 0.000978 0.000978 
-117.500000 298.840637 -9.533449 -0.999999 0.000978 0.000978 
-117.500000 164.905731 -7.247211 -0.999999 0.000978 0.000978 
-117.500000 215.402496 14.543804 -0.999999 0.000978 0.000978 
-117.500000 415.416565 -10.185116 -0.999999 0.000978 0.000978 
-117.500000 241.096924 -3.130295 -0.999999 0.000978 0.000978 
-117.500000 77.012314 42.542526 -0.999999 0.000978 0.000978 
-117.500000 1.558330 20.853889 -0.999999 0.000978 0.000978 
-117.500000 166.166550 4.379883 -0.999999 0.000978 0.000978 
-117.500000 140.030396 38.119713 -0.999999 0.000978 0.000978 
-117.500000 31.686567 15.026699 -0.999999 0.000978 0.000978 
-117.500000 15.324017 -2.863598 -0.999999 0.000978 0.000978 
-117.500000 242.821960 10.257602 -0.999999 0.000978 0.000978 
-117.500000 226.002640 -7.892403 -0.999999 0.000978 0.000978 
-117.500000 208.190308 7.048182 -0.999999 0.000978 0.000978 
-117.500000 263.346313 15.340256 -0.999999 0.000978 0.000978 
-117.500000 72.781006 23.628557 -0.999999 0.000978 0.000978 
-117.500000 79.969841 -3.759064 -0.999999 0.000978 0.000978 
-117.500000 74.196922 16.169056 -0.999999 0.000978 0.000978 
-117.500000 94.144722 47.379635 -0.999999 0.000978 0.000978 
-117.500000 147.107758 28.397221 -0.999999 0.000978 0.000978 
-117.500000 218.378540 -2.159018 -0.999999 0.000978 0.000978 
-117.500000 291.693451 -9.935696 -0.999999 0.000978 0.000978 
-117.500000 398.473633 -13.498627 -0.999999 0.000978 0.000978 
-117.500000 180.676727 11.069445 -0.999999 0.000978 0.000978 
-117.500000 1.734958 13.397476 -0.999999 0.000978 0.000978 
-117.500000 75.943535 8.715836 -0.999999 0.000978 0.000978 
-117.500000 226.294724 -10.175751 -0.999999 0.000978 0.000978 
-117.500000 195.443298 8.902594 -0.999999 0.000978 0.000978 
-117.500000 258.533569 18.213257 -0.999999 0.000978 0.000978 
-117.500000 228.694534 15.047979 -0.999999 0.000978 0.000978 
-117.500000 147.546356 28.276104 -0.999999 0.000978 0.000978 
-117.500000 19.209003 40.315552 -0.999999 0.000978 0.000978 
-117.500000 181.726746 -10.015751 -0.999999 0.000978 0.000978 
-117.500000 167.801895 34.082054 -0.999999 0.000978 0.000978 
-117.500000 38.143303 57.692986 -0.999999 0.000978 0.000978 
-117.500000 310.412872 -1.612762 -0.999999 0.000978 0.000978 
-117.500000 274.843994 8.245240 -0.999999 0.000978 0.000978 
-117.500000 309.738098 -13.395378 -0.999999 0.000978 0.000978 
-117.500000 191.918259 22.488922 -0.999999 0.000978 0.000978 
-117.500000 288.768280 6.372339 -0.999999 0.000978 0.000978 
-117.500000 54.882332 -4.491669 -0.999999 0.000978 0.000978 
-117.500000 194.264786 8.622795 -0.999999 0.000978 0.000978 
-117.500000 141.182953 -12.929508 -0.999999 0.000978 0.000978 
-117.500000 232.045868 -3.424171 -0.999999 0.000978 0.000978 
-117.500000 224.039200 23.133804 -0.999999 0.000978 0.000978 
-117.500000 247.887238 6.497839 -0.999999 0.000978 0.000978 
-117.500000 132.817886 22.079334 -0.999999 0.000978 0.000978 
-117.500000 119.308777 10.199913 -0.999999 0.000978 0.000978 
-117.500000 148.596069 -8.349873 -0.999999 0.000978 0.000978 
-117.500000 149.040833 -5.295517 -0.999999 0.000978 0.000978 
-117.500000 279.195709 7.301107 -0.999999 0.000978 0.000978 
-117.500000 31.123030 31.628901 -0.999999 0.000978 0.000978 
-117.500000 40.719448 13.468094 -0.999999 0.000978 0.000978 
-117.500000 312.277924 8.275377 -0.999999 0.000978 0.000978 
-117.500000 160.765854 -8.825634 -0.999999 0.000978 0.000978 
-117.500000 169.500900 -14.684315 -0.999999 0.000978 0.000978 
-117.500000 119.777168 19.588547 -0.999999 0.000978 0.000978 
-117.500000 30.241386 42.468628 -0.999999 0.000978 0.000978 
-117.500000 67.572647 32.051403 -0.999999 0.000978 0.000978 
-117.500000 85.670731 16.136818 -0.999999 0.000978 0.000978 
-117.500000 101.998558 9.100739 -0.999999 0.000978 0.000978 
-117.500000 240.532669 14.534325 -0.999999 0.000978 0.000978 
-117.500000 74.666397 -8.697975 -0.999999 0.000978 0.000978 
-117.500000 143.813919 14.458004 -0.999999 0.000978 0.000978 
-117.500000 207.339172 -9.076225 -0.999999 0.000978 0.000978 
-117.500000 11.263177 23.786392 -0.999999 0.000978 0.000978 
-117.500000 138.935425 7.753128 -0.999999 0.000978 0.000978 
-117.500000 152.577103 -7.885334 -0.999999 0.000978 0.000978 
-117.500000 85.120308 35.836628 -0.999999 0.000978 0.000978 
-117.500000 128.522598 27.253990 -0.999999 0.000978 0.000978 
-117.500000 46.193539 1.325764 -0.999999 0.000978 0.000978 
-117.500000 369.548645 -4.053716 -0.999999 0.000978 0.000978 
-117.500000 272.050690 8.808589 -0.999999 0.000978 0.000978 
-117.500000 323.620911 -14.122919 -0.999999 0.000978 0.000978 
-117.500000 47.702366 -1.648415 -0.999999 0.000978 0.000978 
-117.500000 122.993393 -11.084694 -0.999999 0.000978 0.000978 
-117.500000 49.337078 12.871845 -0.999999 0.000978 0.000978 
-117.500000 147.184326 19.134701 -0.999999 0.000978 0.000978 
-117.500000 53.919895 9.195869 -0.999999 0.000978 0.000978 
-117.500000 220.323273 12.410589 -0.999999 0.000978 0.000978 
-117.500000 47.415039 47.380974 -0.999999 0.000978 0.000978 
-117.500000 185.816620 -6.955734 -0.999999 0.000978 0.000978 
-117.500000 222.318085 -13.485432 -0.999999 0.000978 0.000978 
-117.500000 50.224686 16.848217 -0.999999 0.000978 0.000978 
-117.500000 58.517010 13.279285 -0.999999 0.000978 0.000978 
-117.500000 189.670486 3.419930 -0.999999 0.000978 0.000978 
-117.500000 65.288544 -6.745926 -0.999999 0.000978 0.000978 
-117.500000 204.899918 25.226881 -0.999999 0.000978 0.000978 
-117.500000 251.096848 -0.732807 -0.999999 0.000978 0.000978 
-117.500000 198.651382 7.279114 -0.999999 0.000978 0.000978 
-117.500000 77.256508 7.951626 -0.999999 0.000978 0.000978 
-117.500000 72.298721 -14.460636 -0.999999 0.000978 0.000978 
-117.500000 262.741241 -12.536171 -0.999999 0.000978 0.000978 
-117.500000 108.669762 1.425159 -0.999999 0.000978 0.000978 
-117.500000 352.681000 -8.369402 -0.999999 0.000978 0.000978 
-117.500000 8.078282 56.180214 -0.999999 0.000978 0.000978 
-117.500000 171.351273 18.004763 -0.999999 0.000978 0.000978 
-117.500000 367.801544 -10.061734 -0.999999 0.000978 0.000978 
-117.500000 90.197960 42.893883 -0.999999 0.000978 0.000978 
-117.500000 192.905975 23.325928 -0.999999 0.000978 0.000978 
-117.500000 160.432190 3.137508 -0.999999 0.000978 0.000978 
-117.500000 224.065094 15.826857 -0.999999 0.000978 0.000978 
-117.500000 8.305611 -1.637016 -0.999999 0.000978 0.000978 
-117.500000 17.739929 35.507637 -0.999999 0.000978 0.000978 
-117.500000 23.911005 37.650654 -0.999999 0.000978 0.000978 
-117.500000 157.600723 4.248592 -0.999999 0.000978 0.000978 
-117.500000 8.629578 33.586670 -0.999999 0.000978 0.000978 
-117.500000 330.116364 -5.822630 -0.999999 0.000978 0.000978 
-117.500000 48.654613 25.354576 -0.999999 0.000978 0.000978 
-117.500000 130.875153 -7.494656 -0.999999 0.000978 0.000978 
-117.500000 252.441040 5.200535 -0.999999 0.000978 0.000978 
-117.500000 324.116516 -1.433727 -0.999999 0.000978 0.000978 
-117.500000 213.224976 19.798166 -0.999999 0.000978 0.000978 
-117.500000 33.244205 42.306877 -0.999999 0.000978 0.000978 
-117.500000 153.708633 23.191854 -0.999999 0.000978 0.000978 
-117.500000 400.687408 -9.724945 -0.999999 0.000978 0.000978 
-117.500000 36.501019 31.472010 -0.999999 0.000978 0.000978 
-117.500000 209.995850 15.734797 -0.999999 0.000978 0.000978 
-117.500000 420.433990 -12.912094 -0.999999 0.000978 0.000978 
-117.500000 241.392700 -3.536234 -0.999999 0.000978 0.000978 
-117.500000 23.256657 0.636177 -0.999999 0.000978 0.000978 
-117.500000 89.884613 17.615856 -0.999999 0.000978 0.000978 
-117.500000 77.778191 7.689194 -0.999999 0.000978 0.000978 
-117.500000 226.967102 -4.598387 -0.999999 0.000978 0.000978 
-117.500000 109.521622 12.444489 -0.999999 0.000978 0.000978 
-117.500000 225.601807 19.198622 -0.999999 0.000978 0.000978 
-117.500000 51.297169 -0.582619 -0.999999 0.000978 0.000978 
-117.500000 134.580032 35.730545 -0.999999 0.000978 0.000978 
-117.500000 159.644073 36.461029 -0.999999 0.000978 0.000978 
-117.500000 59.906044 18.034851 -0.999999 0.000978 0.000978 
-117.500000 275.518250 -10.396429 -0.999999 0.000978 0.000978 
-117.500000 226.764175 24.529644 -0.999999 0.000978 0.000978 
-117.500000 144.149292 26.247021 -0.999999 0.000978 0.000978 
-117.500000 37.877632 42.518745 -0.999999 0.000978 0.000978 
-117.500000 16.585236 -11.412888 -0.999999 0.000978 0.000978 
-117.500000 3.584658 26.077255 -0.999999 0.000978 0.000978 
-117.500000 202.223969 18.999184 -0.999999 0.000978 0.000978 
-117.500000 221.017807 -8.114342 -0.999999 0.000978 0.000978 
-117.500000 104.842987 19.380959 -0.999999 0.000978 0.000978 
-117.500000 95.208961 29.384274 -0.999999 0.000978 0.000978 
-117.500000 89.237152 -2.996872 -0.999999 0.000978 0.000978 
-117.500000 305.560516 -13.805695 -0.999999 0.000978 0.000978 
-117.500000 285.495605 -7.049362 -0.999999 0.000978 0.000978 
-117.500000 333.875092 -7.682307 -0.999999 0.000978 0.000978 
-117.500000 123.021866 -6.238731 -0.999999 0.000978 0.000978 
-117.500000 126.900581 24.206306 -0.999999 0.000978 0.000978 
-117.500000 24.115484 2.951542 -0.999999 0.000978 0.000978 
-117.500000 252.891830 7.510736 -0.999999 0.000978 0.000978 
-117.500000 156.521194 18.912348 -0.999999 0.000978 0.000978 
-117.500000 29.891872 -12.219505 -0.999999 0.000978 0.000978 
-117.500000 141.695358 3.695473 -0.999999 0.000978 0.000978 
-117.500000 306.927673 2.844318 -0.999999 0.000978 0.000978 
-117.500000 40.621696 -5.772110 -0.999999 0.000978 0.000978 
-117.500000 205.062088 25.775152 -0.999999 0.000978 0.000978 
-117.500000 329.945618 3.400670 -0.999999 0.000978 0.000978 
-117.500000 204.345734 -2.883516 -0.999999 0.000978 0.000978 
-117.500000 61.456337 -8.024105 -0.999999 0.000978 0.000978 
-117.500000 118.180771 1.965572 -0.999999 0.000978 0.000978 
-117.500000 83.340851 29.370098 -0.999999 0.000978 0.000978 
-117.500000 56.524200 20.939980 -0.999999 0.000978 0.000978 
-117.500000 217.573303 9.511822 -0.999999 0.000978 0.000978 
-117.500000 84.490189 34.755486 -0.999999 0.000978 0.000978 
-117.500000 138.079544 7.264629 -0.999999 0.000978 0.000978 
-117.500000 72.030899 -0.583439 -0.999999 0.000978 0.000978 
-117.500000 101.743706 20.242994 -0.999999 0.000978 0.000978 
-117.500000 51.741722 54.369827 -0.999999 0.000978 0.000978 
-117.500000 0.300692 19.380325 -0.999999 0.000978 0.000978 
-117.500000 184.765808 9.576906 -0.999999 0.000978 0.000978 
-117.500000 141.800598 20.669847 -0.999999 0.000978 0.000978 
-117.500000 15.914806 37.589024 -0.999999 0.000978 0.000978 
-117.500000 150.415527 26.920391 -0.999999 0.000978 0.000978 
-117.500000 65.579628 0.508434 -0.999999 0.000978 0.000978 
-117.500000 366.164642 -2.623267 -0.999999 0.000978 0.000978 
-117.500000 168.822433 33.720119 -0.999999 0.000978 0.000978 
-117.500000 98.636200 -2.256981 -0.999999 0.000978 0.000978 
-117.500000 303.177032 -1.619827 -0.999999 0.000978 0.000978 
-117.500000 280.079712 3.337708 -0.999999 0.000978 0.000978 
-117.500000 189.291458 -11.838863 -0.999999 0.000978 0.000978 
-117.500000 267.526367 7.390490 -0.999999 0.000978 0.000978 
-117.500000 59.478073 -11.420712 -0.999999 0.000978 0.000978 
-117.500000 45.204865 48.873184 -0.999999 0.000978 0.000978 
-117.500000 175.978485 25.072512 -0.999999 0.000978 0.000978 
-117.500000 85.232872 23.414621 -0.999999 0.000978 0.000978 
-117.500000 222.583511 7.761578 -0.999999 0.000978 0.000978 
-117.500000 205.767502 24.807009 -0.999999 0.000978 0.000978 
-117.500000 184.174835 16.658318 -0.999999 0.000978 0.000978 
-117.500000 83.589569 23.663572 -0.999999 0.000978 0.000978 
-117.500000 178.027603 23.297039 -0.999999 0.000978 0.000978 
-117.500000 36.060425 50.815243 -0.999999 0.000978 0.000978 
-117.500000 198.416229 -4.803135 -0.999999 0.000978 0.000978 
-117.500000 335.919983 -1.081738 -0.999999 0.000978 0.000978 
-117.500000 53.247517 1.536896 -0.999999 0.000978 0.000978 
-117.500000 51.378933 26.865543 -0.999999 0.000978 0.000978 
-117.500000 107.514404 -0.746017 -0.999999 0.000978 0.000978 
-117.500000 67.460915 4.110344 -0.999999 0.000978 0.000978 
-117.500000 75.857697 2.357117 -0.999999 0.000978 0.000978 
-117.500000 197.557205 28.908186 -0.999999 0.000978 0.000978 
-117.500000 333.295532 -9.277823 -0.999999 0.000978 0.000978 
-117.500000 53.291836 8.837933 -0.999999 0.000978 0.000978 
-117.500000 260.259430 10.285900 -0.999999 0.000978 0.000978 
-117.500000 181.856506 -0.966858 -0.999999 0.000978 0.000978 
-117.500000 52.917580 2.564293 -0.999999 0.000978 0.000978 
-117.500000 154.745041 8.459127 -0.999999 0.000978 0.000978 
-117.500000 208.721832 3.366493 -0.999999 0.000978 0.000978 
-117.500000 115.944908 23.510824 -0.999999 0.000978 0.000978 
-117.500000 31.122778 44.507420 -0.999999 0.000978 0.000978 
-117.500000 87.583473 21.072731 -0.999999 0.000978 0.000978 
-117.500000 25.177082 -14.342556 -0.999999 0.000978 0.000978 
-117.500000 259.768707 18.538418 -0.999999 0.000978 0.000978 
-117.500000 9.231961 5.991650 -0.999999 0.000978 0.000978 
-117.500000 345.333862 2.806360 -0.999999 0.000978 0.000978 
-117.500000 102.601280 8.306423 -0.999999 0.000978 0.000978 
-117.500000 99.604248 -11.980209 -0.999999 0.000978 0.000978 
-117.500000 82.158493 30.899124 -0.999999 0.000978 0.000978 
-117.500000 202.523178 9.023272 -0.999999 0.000978 0.000978 
-117.500000 305.169464 -10.588711 -0.999999 0.000978 0.000978 
-117.500000 37.909740 40.182472 -0.999999 0.000978 0.000978 
-117.500000 186.694824 25.149490 -0.999999 0.000978 0.000978 
-117.500000 210.708054 -5.779766 -0.999999 0.000978 0.000978 
-117.500000 135.209412 37.710133 -0.999999 0.000978 0.000978 
-117.500000 184.730179 22.415838 -0.999999 0.000978 0.000978 
-117.500000 121.637566 -9.116604 -0.999999 0.000978 0.000978 
-117.500000 62.211456 2.419628 -0.999999 0.000978 0.000978 
-117.500000 1.884444 63.648708 -0.999999 0.000978 0.000978 
-117.500000 116.946220 11.062737 -0.999999 0.000978 0.000978 
-117.500000 199.167786 5.108332 -0.999999 0.000978 0.000978 
-117.500000 148.052078 21.665150 -0.999999 0.000978 0.000978 
-117.500000 106.476151 44.558834 -0.999999 0.000978 0.000978 
-117.500000 115.328568 11.381718 -0.999999 0.000978 0.000978 
-117.500000 224.437027 -4.121208 -0.999999 0.000978 0.000978 
-117.500000 66.419975 -8.203754 -0.999999 0.000978 0.000978 
-117.500000 72.776115 50.594341 -0.999999 0.000978 0.000978 
-117.500000 97.783257 22.564903 -0.999999 0.000978 0.000978 
-117.500000 54.648129 4.496708 -0.999999 0.000978 0.000978 
-117.500000 100.798088 16.964081 -0.999999 0.000978 0.000978 
-117.500000 186.960312 0.498709 -0.999999 0.000978 0.000978 
-117.500000 46.219982 31.362934 -0.999999 0.000978 0.000978 
-117.500000 364.514221 -9.871117 -0.999999 0.000978 0.000978 
-117.500000 227.268372 7.592285 -0.999999 0.000978 0.000978 
-117.500000 37.117382 18.709026 -0.999999 0.000978 0.000978 
-117.500000 262.632782 -7.397572 -0.999999 0.000978 0.000978 
-117.500000 150.552490 34.014587 -0.999999 0.000978 0.000978 
-117.500000 217.033279 23.924528 -0.999999 0.000978 0.000978 
-117.500000 177.350937 26.736509 -0.999999 0.000978 0.000978 
-117.500000 23.705372 55.256947 -0.999999 0.000978 0.000978 
-117.500000 38.176834 39.776073 -0.999999 0.000978 0.000978 
-117.500000 374.716614 -12.015592 -0.999999 0.000978 0.000978 
-117.500000 52.998360 47.036354 -0.999999 0.000978 0.000978 
-117.500000 26.482252 -11.101860 -0.999999 0.000978 0.000978 
-117.500000 105.228310 34.171333 -0.999999 0.000978 0.000978 
-117.500000 84.622391 -5.044151 -0.999999 0.000978 0.000978 
-117.500000 72.796135 -8.760723 -0.999999 0.000978 0.000978 
-117.500000 20.087160 -9.604752 -0.999999 0.000978 0.000978 
-117.500000 62.130245 29.383347 -0.999999 0.000978 0.000978 
-117.500000 187.568466 16.159452 -0.999999 0.000978 0.000978 
-117.500000 247.929153 14.482045 -0.999999 0.000978 0.000978 
-117.500000 176.676178 29.006161 -0.999999 0.000978 0.000978 
-117.500000 79.330429 -14.848816 -0.999999 0.000978 0.000978 
-117.500000 132.310120 3.831284 -0.999999 0.000978 0.000978 
-117.500000 129.038284 37.108173 -0.999999 0.000978 0.000978 
-117.500000 96.998924 16.515127 -0.999999 0.000978 0.000978 
-117.500000 152.256439 11.084030 -0.999999 0.000978 0.000978 
-117.500000 84.154221 35.525124 -0.999999 0.000978 0.000978 
-117.500000 215.212021 4.320404 -0.999999 0.000978 0.000978 
-117.500000 50.462734 -14.162560 -0.999999 0.000978 0.000978 
-117.500000 93.981895 12.275951 -0.999999 0.000978 0.000978 
-117.500000 356.007996 -14.126396 -0.999999 0.000978 0.000978 
-117.500000 175.696884 5.317608 -0.999999 0.000978 0.000978 
-117.500000 407.430084 -11.443029 -0.999999 0.000978 0.000978 
-117.500000 52.385468 10.705902 -0.999999 0.000978 0.000978 
-117.500000 252.507843 -9.427641 -0.999999 0.000978 0.000978 
-117.500000 87.233994 43.978951 -0.999999 0.000978 0.000978 
-117.500000 22.822844 28.148949 -0.999999 0.000978 0.000978 
-117.500000 103.152283 -0.992161 -0.999999 0.000978 0.000978 
-117.500000 19.590775 -8.871811 -0.999999 0.000978 0.000978 
-117.500000 16.045029 58.267456 -0.999999 0.000978 0.000978 
-117.500000 283.488586 5.811853 -0.999999 0.000978 0.000978 
-117.500000 267.359497 -12.428608 -0.999999 0.000978 0.000978 
-117.500000 84.680969 43.597225 -0.999999 0.000978 0.000978 
-117.500000 76.103378 39.881725 -0.999999 0.000978 0.000978 
-117.500000 29.783028 -2.244400 -0.999999 0.000978 0.000978 
-117.500000 66.716194 31.006161 -0.999999 0.000978 0.000978 
-117.500000 432.512604 -12.119423 -0.999999 0.000978 0.000978 
-117.500000 0.899969 57.288986 -0.999999 0.000978 0.000978 
-117.500000 286.407776 -6.795998 -0.999999 0.000978 0.000978 
-117.500000 50.862675 4.885590 -0.999999 0.000978 0.000978 
-117.500000 99.214706 -10.659744 -0.999999 0.000978 0.000978 
-117.500000 70.349220 28.343433 -0.999999 0.000978 0.000978 
-117.500000 115.806442 7.503750 -0.999999 0.000978 0.000978 
-117.500000 156.663712 -5.174881 -0.999999 0.000978 0.000978 
-117.500000 153.873276 6.618341 -0.999999 0.000978 0.000978 
-117.500000 41.129860 -2.725731 -0.999999 0.000978 0.000978 
-117.500000 247.437973 -0.956493 -0.999999 0.000978 0.000978 
-117.500000 274.365814 -9.773975 -0.999999 0.000978 0.000978 
-117.500000 119.007103 10.148396 -0.999999 0.000978 0.000978 
-117.500000 99.636215 44.368694 -0.999999 0.000978 0.000978 
-117.500000 126.266075 40.935547 -0.999999 0.000978 0.000978 
-117.500000 250.923279 1.241259 -0.999999 0.000978 0.000978 
-117.500000 79.564964 5.140205 -0.999999 0.000978 0.000978 
-117.500000 195.301865 -5.242836 -0.999999 0.000978 0.000978 
-117.500000 122.473885 7.415314 -0.999999 0.000978 0.000978 
-117.500000 97.730110 -8.369682 -0.999999 0.000978 0.000978 
-117.500000 172.229797 18.242990 -0.999999 0.000978 0.000978 
-117.500000 165.491211 13.595304 -0.999999 0.000978 0.000978 
-117.500000 351.669495 -1.107974 -0.999999 0.000978 0.000978 
-117.500000 11.508496 12.605743 -0.999999 0.000978 0.000978 
-117.500000 232.175842 -12.888439 -0.999999 0.000978 0.000978 
-117.500000 120.804176 22.757755 -0.999999 0.000978 0.000978 
-117.500000 331.488556 0.047629 -0.999999 0.000978 0.000978 
-117.500000 7.383114 53.011463 -0.999999 0.000978 0.000978 
-117.500000 95.361206 -9.490070 -0.999999 0.000978 0.000978 
-117.500000 118.074318 -3.858898 -0.999999 0.000978 0.000978 
-117.500000 19.114569 -6.651608 -0.999999 0.000978 0.000978 
-117.500000 63.068523 15.101406 -0.999999 0.000978 0.000978 
-117.500000 76.986252 -14.119759 -0.999999 0.000978 0.000978 
-117.500000 96.855865 9.581715 -0.999999 0.000978 0.000978 
-117.500000 88.794006 47.066860 -0.999999 0.000978 0.000978 
-117.500000 14.148032 9.091770 -0.999999 0.000978 0.000978 
-117.500000 84.722900 2.862709 -0.999999 0.000978 0.000978 
-117.500000 392.650848 -13.416191 -0.999999 0.000978 0.000978 
-117.500000 149.014297 12.184822 -0.999999 0.000978 0.000978 
-117.500000 242.631363 -14.649910 -0.999999 0.000978 0.000978 
-117.500000 226.669006 0.617022 -0.999999 0.000978 0.000978 
-117.500000 146.624802 16.121258 -0.999999 0.000978 0.000978 
-117.500000 270.307678 15.534534 -0.999999 0.000978 0.000978 
-117.500000 16.167828 3.323605 -0.999999 0.000978 0.000978 
-117.500000 104.417168 33.219120 -0.999999 0.000978 0.000978 
-117.500000 108.570900 40.200584 -0.999999 0.000978 0.000978 
-117.500000 132.093796 16.344637 -0.999999 0.000978 0.000978 
-117.500000 7.252344 1.470875 -0.999999 0.000978 0.000978 
-117.500000 259.548950 10.556401 -0.999999 0.000978 0.000978 
-117.500000 202.874603 2.172613 -0.999999 0.000978 0.000978 
-117.500000 238.746078 -11.747166 -0.999999 0.000978 0.000978 
-117.500000 215.101517 -0.628895 -0.999999 0.000978 0.000978 
-117.500000 140.146179 14.502728 -0.999999 0.000978 0.000978 
-117.500000 281.488953 -4.432646 -0.999999 0.000978 0.000978 
-117.500000 79.389900 22.647133 -0.999999 0.000978 0.000978 
-117.500000 49.577507 35.448517 -0.999999 0.000978 0.000978 
-117.500000 142.616867 8.163383 -0.999999 0.000978 0.000978 
-117.500000 141.364059 -6.532120 -0.999999 0.000978 0.000978 
-117.500000 438.587341 -14.521481 -0.999999 0.000978 0.000978 
-117.500000 117.196159 19.449286 -0.999999 0.000978 0.000978 
-117.500000 223.637466 -13.158867 -0.999999 0.000978 0.000978 
-117.500000 332.290436 -6.885762 -0.999999 0.000978 0.000978 
-117.500000 194.845139 -4.625206 -0.999999 0.000978 0.000978 
-117.500000 355.886871 -11.944026 -0.999999 0.000978 0.000978 
-117.500000 169.322220 25.768843 -0.999999 0.000978 0.000978 
-117.500000 80.616364 0.092884 -0.999999 0.000978 0.000978 
-117.500000 80.545929 18.886995 -0.999999 0.000978 0.000978 
-117.500000 206.128357 26.250538 -0.999999 0.000978 0.000978 
-117.500000 69.656075 28.815847 -0.999999 0.000978 0.000978 
-117.500000 126.820129 12.833841 -0.999999 0.000978 0.000978 
-117.500000 7.756402 39.961567 -0.999999 0.000978 0.000978 
-117.500000 126.628754 15.406290 -0.999999 0.000978 0.000978 
-117.500000 122.793243 15.897053 -0.999999 0.000978 0.000978 
-117.500000 146.525421 24.790373 -0.999999 0.000978 0.000978 
-117.500000 49.991261 -8.052635 -0.999999 0.000978 0.000978 
-117.500000 119.672981 25.782078 -0.999999 0.000978 0.000978 
-117.500000 383.426941 -8.043330 -0.999999 0.000978 0.000978 
-117.500000 1.346245 37.734730 -0.999999 0.000978 0.000978 
-117.500000 306.323334 -11.134865 -0.999999 0.000978 0.000978 
-117.500000 412.317810 -14.966672 -0.999999 0.000978 0.000978 
-117.500000 169.230362 16.303244 -0.999999 0.000978 0.000978 
-117.500000 64.790558 -13.576435 -0.999999 0.000978 0.000978 
-117.500000 215.371841 -0.516550 -0.999999 0.000978 0.000978 
-117.500000 276.038910 12.638798 -0.999999 0.000978 0.000978 
-117.500000 96.254395 34.914295 -0.999999 0.000978 0.000978 
-117.500000 177.339127 5.464354 -0.999999 0.000978 0.000978 
-117.500000 9.247032 50.550182 -0.999999 0.000978 0.000978 
-117.500000 76.943527 39.930805 -0.999999 0.000978 0.000978 
-117.500000 238.382721 1.392252 -0.999999 0.000978 0.000978 
-117.500000 138.873428 1.263252 -0.999999 0.000978 0.000978 
-117.500000 156.710022 9.620056 -0.999999 0.000978 0.000978 
-117.500000 99.979050 -12.065437 -0.999999 0.000978 0.000978 
-117.500000 53.805408 30.920633 -0.999999 0.000978 0.000978 
-117.500000 97.491951 -3.440548 -0.999999 0.000978 0.000978 
-117.500000 382.253021 -5.122229 -0.999999 0.000978 0.000978 
-117.500000 312.441589 -13.920719 -0.999999 0.000978 0.000978 
-117.500000 20.657578 1.281193 -0.999999 0.000978 0.000978 
-117.500000 56.054924 11.212513 -0.999999 0.000978 0.000978 
-117.500000 272.538727 -6.540510 -0.999999 0.000978 0.000978 
-117.500000 59.606377 -2.456421 -0.999999 0.000978 0.000978 
-117.500000 112.392128 6.100864 -0.999999 0.000978 0.000978 
-117.500000 179.162903 19.149212 -0.999999 0.000978 0.000978 
-117.500000 32.055820 30.869404 -0.999999 0.000978 0.000978 
-117.500000 55.173683 47.293228 -0.999999 0.000978 0.000978 
-117.500000 49.146637 37.980782 -0.999999 0.000978 0.000978 
-117.500000 208.450577 -3.028061 -0.999999 0.000978 0.000978 
-117.500000 138.671722 31.933575 -0.999999 0.000978 0.000978 
-117.500000 292.277649 -5.491528 -0.999999 0.000978 0.000978 
-117.500000 23.499031 42.851101 -0.999999 0.000978 0.000978 
-117.500000 24.365416 51.666344 -0.999999 0.000978 0.000978 
-117.500000 88.335114 28.990177 -0.999999 0.000978 0.000978 
-117.500000 345.548950 -2.026838 -0.999999 0.000978 0.000978 
-117.500000 52.891998 42.841702 -0.999999 0.000978 0.000978 
-117.500000 55.882320 49.335648 -0.999999 0.000978 0.000978 
-117.500000 132.162659 28.454329 -0.999999 0.000978 0.000978 
-117.500000 388.763611 -8.741829 -0.999999 0.000978 0.000978 
-117.500000 308.337219 -12.934107 -0.999999 0.000978 0.000978 
-117.500000 195.966522 25.620634 -0.999999 0.000978 0.000978 
-117.500000 136.413513 -11.281170 -0.999999 0.000978 0.000978 
-117.500000 5.806416 52.009842 -0.999999 0.000978 0.000978 
-117.500000 255.549286 7.922722 -0.999999 0.000978 0.000978 
-117.500000 219.390717 18.512674 -0.999999 0.000978 0.000978 
-117.500000 15.517516 53.760803 -0.999999 0.000978 0.000978 
-117.500000 113.517982 27.319195 -0.999999 0.000978 0.000978 
-117.500000 119.058296 37.126423 -0.999999 0.000978 0.000978 
-117.500000 31.288666 35.983383 -0.999999 0.000978 0.000978 
-117.500000 9.289087 35.996567 -0.999999 0.000978 0.000978 
-117.500000 298.886444 -14.668961 -0.999999 0.000978 0.000978 
-117.500000 289.822174 -5.081133 -0.999999 0.000978 0.000978 
-117.500000 215.660019 16.968945 -0.999999 0.000978 0.000978 
-117.500000 157.994034 6.043766 -0.999999 0.000978 0.000978 
-117.500000 100.882568 43.397446 -0.999999 0.000978 0.000978 
-117.500000 345.740723 3.375831 -0.999999 0.000978 0.000978 
-117.500000 30.032530 51.735001 -0.999999 0.000978 0.000978 
-117.500000 154.439667 24.223278 -0.999999 0.000978 0.000978 
-117.500000 311.824310 -9.754881 -0.999999 0.000978 0.000978 
-117.500000 16.046810 -1.291862 -0.999999 0.000978 0.000978 
-117.500000 115.438309 28.702070 -0.999999 0.000978 0.000978 
-117.500000 244.791916 -6.392420 -0.999999 0.000978 0.000978 
-117.500000 122.211784 -7.569393 -0.999999 0.000978 0.000978 
-117.500000 140.951843 33.669037 -0.999999 0.000978 0.000978 
-117.500000 42.271633 -14.371639 -0.999999 0.000978 0.000978 
-117.500000 110.591858 36.799286 -0.999999 0.000978 0.000978 
-117.500000 110.068550 41.870647 -0.999999 0.000978 0.000978 
-117.500000 141.917755 -1.474194 -0.999999 0.000978 0.000978 
-117.500000 82.261497 -4.790592 -0.999999 0.000978 0.000978 
-117.500000 5.209834 16.520939 -0.999999 0.000978 0.000978 
-117.500000 192.166199 -5.034721 -0.999999 0.000978 0.000978 
-117.500000 17.294336 22.146137 -0.999999 0.000978 0.000978 
-117.500000 19.745256 51.872646 -0.999999 0.000978 0.000978 
-117.500000 89.290619 19.528458 -0.999999 0.000978 0.000978 
-117.500000 162.683548 5.769283 -0.999999 0.000978 0.000978 
-117.500000 187.650330 9.508099 -0.999999 0.000978 0.000978 
-117.500000 18.520985 61.067543 -0.999999 0.000978 0.000978 
-117.500000 280.184235 9.232103 -0.999999 0.000978 0.000978 
-117.500000 44.932335 -4.636192 -0.999999 0.000978 0.000978 
-117.500000 74.462723 17.501503 -0.999999 0.000978 0.000978 
-117.500000 295.698395 3.553872 -0.999999 0.000978 0.000978 
-117.500000 263.365997 -5.160810 -0.999999 0.000978 0.000978 
-117.500000 259.603607 -6.946888 -0.999999 0.000978 0.000978 
-117.500000 7.640279 -14.279896 -0.999999 0.000978 0.000978 
-117.500000 21.481695 18.288605 -0.999999 0.000978 0.000978 
-117.500000 318.412354 -10.036243 -0.999999 0.000978 0.000978 
-117.500000 9.444649 -2.849392 -0.999999 0.000978 0.000978 
-117.500000 49.186783 -13.432343 -0.999999 0.000978 0.000978 
-117.500000 199.138412 6.008863 -0.999999 0.000978 0.000978 
-117.500000 332.102936 -13.956024 -0.999999 0.000978 0.000978 
-117.500000 103.097000 -14.261959 -0.999999 0.000978 0.000978 
-117.500000 174.200363 30.229931 -0.999999 0.000978 0.000978 
-117.500000 99.950844 42.997822 -0.999999 0.000978 0.000978 
-117.500000 202.621094 -7.263287 -0.999999 0.000978 0.000978 
-117.500000 105.486107 -6.172894 -0.999999 0.000978 0.000978 
-117.500000 88.170448 -11.946205 -0.999999 0.000978 0.000978 
-117.500000 407.564148 -10.812921 -0.999999 0.000978 0.000978 
-117.500000 368.394287 -6.380591 -0.999999 0.000978 0.000978 
-117.500000 45.592995 43.697334 -0.999999 0.000978 0.000978 
-117.500000 222.195114 7.888180 -0.999999 0.000978 0.000978 
-117.500000 32.116360 51.745865 -0.999999 0.000978 0.000978 
-117.500000 332.494629 -3.683172 -0.999999 0.000978 0.000978 
-117.500000 383.960175 -12.780397 -0.999999 0.000978 0.000978 
-117.500000 137.973679 19.335382 -0.999999 0.000978 0.000978 
-117.500000 331.779938 -3.894666 -0.999999 0.000978 0.000978 
-117.500000 213.820541 25.097183 -0.999999 0.000978 0.000978 
-117.500000 92.436790 40.002396 -0.999999 0.000978 0.000978 
-117.500000 67.053856 27.847563 -0.999999 0.000978 0.000978 
-117.500000 270.411743 16.407970 -0.999999 0.000978 0.000978 
-117.500000 435.363495 -12.503621 -0.999999 0.000978 0.000978 
-117.500000 31.646851 -6.254227 -0.999999 0.000978 0.000978 
-117.500000 69.198723 20.011429 -0.999999 0.000978 0.000978 
-117.500000 41.397430 15.854012 -0.999999 0.000978 0.000978 
-117.500000 127.782677 39.016045 -0.999999 0.000978 0.000978 
-117.500000 84.716309 -7.292938 -0.999999 0.000978 0.000978 
-117.500000 142.577347 8.137880 -0.999999 0.000978 0.000978 
-117.500000 75.326233 48.500767 -0.999999 0.000978 0.000978 
-117.500000 330.149048 -4.130415 -0.999999 0.000978 0.000978 
-117.500000 34.800564 28.154169 -0.999999 0.000978 0.000978 
-117.500000 221.481979 15.800679 -0.999999 0.000978 0.000978 
-117.500000 110.305977 18.983429 -0.999999 0.000978 0.000978 
-117.500000 111.792542 18.420841 -0.999999 0.000978 0.000978 
-117.500000 218.799637 23.758951 -0.999999 0.000978 0.000978 
-117.500000 22.845541 -11.985561 -0.999999 0.000978 0.000978 
-117.500000 324.094604 1.166865 -0.999999 0.000978 0.000978 
-117.500000 2.584152 8.527298 -0.999999 0.000978 0.000978 
-117.500000 13.967400 10.941494 -0.999999 0.000978 0.000978 
-117.500000 294.541260 7.101352 -0.999999 0.000978 0.000978 
-117.500000 306.932098 1.668742 -0.999999 0.000978 0.000978 
-117.500000 146.617142 4.174911 -0.999999 0.000978 0.000978 
-117.500000 136.595886 20.312527 -0.999999 0.000978 0.000978 
-117.500000 197.696472 22.971420 -0.999999 0.000978 0.000978 
-117.500000 346.491058 -4.702652 -0.999999 0.000978 0.000978 
-117.500000 83.026825 -5.657440 -0.999999 0.000978 0.000978 
-117.500000 374.326538 -7.107361 -0.999999 0.000978 0.000978 
-117.500000 302.837433 0.016006 -0.999999 0.000978 0.000978 
-117.500000 162.658218 29.090971 -0.999999 0.000978 0.000978 
-117.500000 400.014130 -12.411637 -0.999999 0.000978 0.000978 
-117.500000 210.417953 -8.634792 -0.999999 0.000978 0.000978 
-117.500000 314.067749 -8.522959 -0.999999 0.000978 0.000978 
-117.500000 127.860313 25.457417 -0.999999 0.000978 0.000978 
-117.500000 16.806862 5.259136 -0.999999 0.000978 0.000978 
-117.500000 19.161764 16.623447 -0.999999 0.000978 0.000978 
-117.500000 197.821106 13.152004 -0.999999 0.000978 0.000978 
-117.500000 294.260437 0.094452 -0.999999 0.000978 0.000978 
-117.500000 250.449631 10.287585 -0.999999 0.000978 0.000978 
-117.500000 27.099718 20.543640 -0.999999 0.000978 0.000978 
-117.500000 131.794189 25.462170 -0.999999 0.000978 0.000978 
-117.500000 334.405334 3.574781 -0.999999 0.000978 0.000978 
-117.500000 121.830643 6.745541 -0.999999 0.000978 0.000978 
-117.500000 163.524948 12.111540 -0.999999 0.000978 0.000978 
-117.500000 102.109131 40.741837 -0.999999 0.000978 0.000978 
-117.500000 18.187531 36.373787 -0.999999 0.000978 0.000978 
-117.500000 143.811493 27.072620 -0.999999 0.000978 0.000978 
-117.500000 346.536194 -10.070432 -0.999999 0.000978 0.000978 
-117.500000 30.482933 -14.099884 -0.999999 0.000978 0.000978 
-117.500000 294.488281 -5.206120 -0.999999 0.000978 0.000978 
-117.500000 337.116364 -8.336029 -0.999999 0.000978 0.000978 
-117.500000 176.900421 10.697748 -0.999999 0.000978 0.000978 
-117.500000 205.600693 24.660892 -0.999999 0.000978 0.000978 
-117.500000 115.539169 35.242035 -0.999999 0.000978 0.000978 
-117.500000 2.277760 40.331779 -0.999999 0.000978 0.000978 
-117.500000 132.785797 -1.257576 -0.999999 0.000978 0.000978 
-117.500000 240.155151 15.894531 -0.999999 0.000978 0.000978 
-117.500000 24.622684 24.210587 -0.999999 0.000978 0.000978 
-117.500000 36.812557 5.934292 -0.999999 0.000978 0.000978 
-117.500000 182.627762 0.026695 -0.999999 0.000978 0.000978 
-117.500000 84.079330 24.047607 -0.999999 0.000978 0.000978 
-117.500000 42.106239 2.117035 -0.999999 0.000978 0.000978 
-117.500000 160.362610 -0.610321 -0.999999 0.000978 0.000978 
-117.500000 134.299896 9.819494 -0.999999 0.000978 0.000978 
-117.500000 156.798660 -9.491104 -0.999999 0.000978 0.000978 
-117.500000 261.528778 5.073154 -0.999999 0.000978 0.000978 
-117.500000 255.980835 -9.631922 -0.999999 0.000978 0.000978 
-117.500000 72.921089 49.588886 -0.999999 0.000978 0.000978 
-117.500000 117.806465 -1.924561 -0.999999 0.000978 0.000978 
-117.500000 279.777802 -7.124712 -0.999999 0.000978 0.000978 
-117.500000 111.543953 5.641567 -0.999999 0.000978 0.000978 
-117.500000 186.566788 17.781235 -0.999999 0.000978 0.000978 
-117.500000 332.566010 -0.905129 -0.999999 0.000978 0.000978 
-117.500000 100.635574 -10.397514 -0.999999 0.000978 0.000978 
-117.500000 245.164764 -1.931311 -0.999999 0.000978 0.000978 
-117.500000 23.413857 37.773514 -0.999999 0.000978 0.000978 
-117.500000 122.031433 6.456776 -0.999999 0.000978 0.000978 
-117.500000 183.509827 4.913097 -0.999999 0.000978 0.000978 
-117.500000 201.760666 13.985446 -0.999999 0.000978 0.000978 
-117.500000 29.834835 8.860367 -0.999999 0.000978 0.000978 
-117.500000 161.233246 5.947269 -0.999999 0.000978 0.000978 
-117.500000 9.183032 23.532684 -0.999999 0.000978 0.000978 
-117.500000 151.865967 -4.796356 -0.999999 0.000978 0.000978 
-117.500000 333.935852 5.251373 -0.999999 0.000978 0.000978 
-117.500000 1.779114 40.074760 -0.999999 0.000978 0.000978 
-117.500000 123.299446 2.448128 -0.999999 0.000978 0.000978 
-117.500000 314.146454 -4.440176 -0.999999 0.000978 0.000978 
-117.500000 241.086472 -7.476833 -0.999999 0.000978 0.000978 
-117.500000 10.476308 22.157211 -0.999999 0.000978 0.000978 
-117.500000 244.421875 13.692698 -0.999999 0.000978 0.000978 
-117.500000 18.852022 -1.691902 -0.999999 0.000978 0.000978 
-117.500000 99.444725 40.472397 -0.999999 0.000978 0.000978 
-117.500000 112.280907 29.724503 -0.999999 0.000978 0.000978 
-117.500000 115.612183 -8.902916 -0.999999 0.000978 0.000978 
-117.500000 123.053406 32.658657 -0.999999 0.000978 0.000978 
-117.500000 327.629242 -12.769882 -0.999999 0.000978 0.000978 
-117.500000 44.689011 -4.720974 -0.999999 0.000978 0.000978 
-117.500000 191.456863 18.284771 -0.999999 0.000978 0.000978 
-117.500000 176.826797 7.776697 -0.999999 0.000978 0.000978 
-117.500000 94.492783 45.454456 -0.999999 0.000978 0.000978 
-117.500000 8.842625 28.377724 -0.999999 0.000978 0.000978 
-117.500000 187.781113 3.020470 -0.999999 0.000978 0.000978 
-117.500000 69.421616 51.177826 -0.999999 0.000978 0.000978 
-117.500000 284.880554 -9.871792 -0.999999 0.000978 0.000978 
-117.500000 87.313705 12.184353 -0.999999 0.000978 0.000978 
-117.500000 184.705917 6.487923 -0.999999 0.000978 0.000978 
-117.500000 120.167725 28.856771 -0.999999 0.000978 0.000978 
-117.500000 284.421234 -1.792257 -0.999999 0.000978 0.000978 
-117.500000 127.641365 26.508911 -0.999999 0.000978 0.000978 
-117.500000 292.053223 7.935813 -0.999999 0.000978 0.000978 
-117.500000 176.928177 -13.812069 -0.999999 0.000978 0.000978 
-117.500000 157.007706 19.982296 -0.999999 0.000978 0.000978 
-117.500000 6.142001 -8.400345 -0.999999 0.000978 0.000978 
-117.500000 347.568329 -3.529622 -0.999999 0.000978 0.000978 
-117.500000 58.880959 49.974846 -0.999999 0.000978 0.000978 
-117.500000 139.920776 -8.718498 -0.999999 0.000978 0.000978 
-117.500000 197.321045 9.810249 -0.999999 0.000978 0.000978 
-117.500000 87.509468 48.996880 -0.999999 0.000978 0.000978 
-117.500000 147.666580 -10.313423 -0.999999 0.000978 0.000978 
-117.500000 165.407089 15.696457 -0.999999 0.000978 0.000978 
-117.500000 227.916229 16.227127 -0.999999 0.000978 0.000978 
-117.500000 189.769760 15.076880 -0.999999 0.000978 0.000978 
-117.500000 270.102325 5.384396 -0.999999 0.000978 0.000978 
-117.500000 109.278336 -0.076069 -0.999999 0.000978 0.000978 
-117.500000 54.183239 19.196476 -0.999999 0.000978 0.000978 
-117.500000 3.562405 39.910782 -0.999999 0.000978 0.000978 
-117.500000 148.453552 10.138800 -0.999999 0.000978 0.000978 
-117.500000 177.124634 32.406414 -0.999999 0.000978 0.000978 
-117.500000 234.689636 15.739162 -0.999999 0.000978 0.000978 
-117.500000 0.774880 8.709610 -0.999999 0.000978 0.000978 
-117.500000 145.776688 32.516956 -0.999999 0.000978 0.000978 
-117.500000 60.547791 50.701466 -0.999999 0.000978 0.000978 
-117.500000 337.367432 -14.272631 -0.999999 0.000978 0.000978 
-117.500000 128.065323 29.856934 -0.999999 0.000978 0.000978 
-117.500000 93.571571 26.439425 -0.999999 0.000978 0.000978 
-117.500000 295.045044 0.183043 -0.999999 0.000978 0.000978 
-117.500000 133.088562 37.558369 -0.999999 0.000978 0.000978 
-117.500000 47.572174 16.778034 -0.999999 0.000978 0.000978 
-117.500000 1.942950 -12.351700 -0.999999 0.000978 0.000978 
-117.500000 264.412903 -2.345741 -0.999999 0.000978 0.000978 
-117.500000 191.888672 29.487278 -0.999999 0.000978 0.000978 
-117.500000 160.926529 28.045048 -0.999999 0.000978 0.000978 
-117.500000 173.279892 -11.412300 -0.999999 0.000978 0.000978 
-117.500000 110.728203 17.432077 -0.999999 0.000978 0.000978 
-117.500000 44.070129 25.645811 -0.999999 0.000978 0.000978 
-117.500000 262.824646 -4.586679 -0.999999 0.000978 0.000978 
