ply
format ascii 1.0
comment Created by CloudCompare v2.12.0 (Kyiv)
comment Created 2023-02-04T19:21:47
obj_info Generated by CloudCompare!
element vertex 797
property float x
property float y
property float z
property float nx
property float ny
property float nz
end_header
-35.715477 40.232620 121.436012 0.475910 0.156684 -0.865424 
-41.356342 38.220573 123.373756 -0.415463 -0.278497 -0.865927 
-40.597168 37.591450 123.308968 -0.292295 -0.408601 -0.864643 
-39.059372 42.731945 124.332825 -0.109926 0.486816 -0.866560 
-35.722244 39.163998 126.422249 0.500853 -0.017550 -0.865355 
-41.786533 39.710888 127.124542 -0.499326 -0.045393 -0.865224 
-41.123550 37.768242 127.251274 -0.363489 -0.342017 -0.866545 
-37.346691 37.075920 129.969055 0.292295 -0.408601 -0.864643 
-40.254021 41.965446 131.855270 -0.327364 0.379620 -0.865287 
-36.352013 38.694008 56.250790 0.485237 -0.125269 -0.865363 
-36.351788 40.847183 56.493168 0.413678 0.282400 -0.865518 
-40.672962 37.700081 57.240799 -0.311671 -0.394579 -0.864389 
-40.908848 40.881207 58.129307 -0.462870 0.194971 -0.864718 
-40.331886 37.904797 59.566719 -0.289129 -0.411512 -0.864328 
-41.111240 40.252674 60.691559 -0.501755 0.056986 -0.863130 
-40.796894 37.903286 61.019367 -0.345104 -0.360442 -0.866594 
-40.829674 41.006718 61.932816 -0.448755 0.220625 -0.865993 
-37.272724 37.379276 63.817440 0.326981 -0.382246 -0.864275 
-41.193077 39.121792 65.897194 -0.477650 -0.166075 -0.862710 
-37.194000 37.654137 67.540939 0.361016 -0.348726 -0.864903 
-36.643650 37.836193 70.269264 0.416560 -0.279233 -0.865163 
-37.178596 41.433964 71.644363 0.262671 0.429687 -0.863929 
-37.858532 42.136108 71.891846 0.095155 0.492817 -0.864915 
-36.300098 38.710232 75.327507 0.486566 -0.119130 -0.865484 
-38.946217 42.181507 75.741844 -0.107104 0.486966 -0.866829 
-36.939732 37.521732 76.599556 0.370160 -0.339442 -0.864732 
-39.715363 37.437855 78.708878 -0.140843 -0.483512 -0.863933 
-39.025528 36.978374 80.198158 -0.001334 -0.500299 -0.865851 
-36.235146 38.901249 80.416496 0.498539 -0.074430 -0.863666 
-36.054646 39.805313 81.814133 0.491453 0.103989 -0.864673 
-35.970325 39.438179 83.106117 0.500145 0.031344 -0.865374 
-39.022629 42.315823 84.720543 -0.119296 0.484370 -0.866692 
-38.622059 42.019348 85.771599 -0.051074 0.498313 -0.865491 
-37.461250 37.202732 86.694214 0.285960 -0.414412 -0.863996 
-40.733116 41.410679 89.943489 -0.416203 0.282043 -0.864423 
-41.296062 39.317501 90.058075 -0.486448 -0.125582 -0.864637 
-36.444187 40.708405 91.966225 0.421183 0.272173 -0.865174 
-39.070343 36.962299 92.907982 -0.009394 -0.500591 -0.865633 
-38.052338 37.174332 94.154663 0.194702 -0.465204 -0.863526 
-36.252960 38.609863 94.420715 0.481478 -0.134467 -0.866082 
-38.909058 42.166626 94.777824 -0.100920 0.490388 -0.865641 
-38.490894 37.205189 95.338730 0.106955 -0.489141 -0.865622 
-38.861053 37.198067 97.850159 0.034194 -0.499233 -0.865793 
-37.604267 37.487705 97.935570 0.295091 -0.408234 -0.863867 
-40.083183 37.235485 99.208694 -0.191840 -0.465471 -0.864022 
-38.405647 37.170670 99.181198 0.122433 -0.485410 -0.865672 
-39.530525 42.044605 102.447685 -0.227219 0.446915 -0.865239 
-36.574326 41.341667 103.578018 0.345104 0.360442 -0.866594 
-41.392506 40.001148 106.579025 -0.499448 0.004017 -0.866335 
-36.466995 40.967136 107.278381 0.393907 0.308075 -0.865983 
-40.918839 38.268593 107.909805 -0.393534 -0.310846 -0.865162 
-36.714340 41.156120 111.061569 0.355271 0.352195 -0.865876 
-36.326103 40.775097 113.634941 0.421530 0.269353 -0.865887 
-40.954350 40.762798 114.016167 -0.471658 0.168974 -0.865440 
-39.693066 42.104198 115.229240 -0.246174 0.436469 -0.865386 
-37.731888 37.326321 115.755272 0.259840 -0.430028 -0.864615 
-36.735672 38.219746 115.829071 0.441152 -0.236385 -0.865741 
-41.336895 39.127068 120.592308 -0.478171 -0.156466 -0.864217 
-37.155106 41.721008 121.332520 0.239849 0.441986 -0.864362 
-39.953308 41.715382 122.737282 -0.320720 0.388240 -0.863949 
-40.604111 37.768883 123.224403 -0.311671 -0.394579 -0.864389 
-40.677814 37.835014 125.766861 -0.327364 -0.379620 -0.865287 
-41.044788 40.016155 126.685318 -0.503776 0.006717 -0.863808 
-41.105511 39.806488 126.724335 -0.502469 -0.034228 -0.863918 
-41.288441 38.982262 129.476334 -0.469690 -0.182246 -0.863816 
-37.201588 37.816128 63.529739 0.639507 -0.768784 0.001375 
-40.170837 37.791302 70.969650 -0.627537 -0.778585 0.001373 
-38.553986 41.952305 74.177864 0.063217 0.997999 0.001036 
-36.989761 41.221397 75.335724 0.731560 0.681775 0.001383 
-37.999329 37.382877 76.278069 0.300017 -0.953933 0.001225 
-37.754345 37.473267 79.982323 0.403862 -0.914819 0.001290 
-41.036182 39.832928 83.361740 -0.995927 0.090153 0.001061 
-40.690083 40.855656 85.792755 -0.850035 0.526725 0.001347 
-39.288651 41.895123 94.618675 -0.251210 0.967932 0.001191 
-36.928356 38.101223 95.383255 0.760132 -0.649768 0.001380 
-40.944096 40.295841 99.964241 -0.957524 0.288352 0.001217 
-40.455883 38.079903 103.980812 -0.752490 -0.658602 0.001381 
-38.482376 41.943043 108.565018 0.094759 0.995500 0.001065 
-40.515648 38.158157 114.118370 -0.778585 -0.627537 0.001373 
-38.359501 41.927151 128.800964 0.145462 0.989363 0.001110 
-38.972412 41.936024 130.083008 -0.116148 0.993231 0.001085 
-36.368671 39.344612 131.010529 0.993231 -0.116148 0.001085 
-40.479073 38.957645 55.740776 0.000978 0.000978 -0.999999 
-34.069344 38.621662 132.678757 0.977614 -0.210402 0.001162 
-34.003918 40.123627 132.890564 0.994296 0.106647 0.001077 
-35.872265 43.402756 137.342529 0.598464 0.801148 0.001369 
-36.342129 43.755131 133.380234 0.495132 0.868817 0.001335 
-36.821083 43.953522 134.587112 0.397643 0.917539 0.001287 
-39.112381 44.329353 134.151535 -0.087863 0.996132 0.001059 
-41.192669 43.660259 137.435776 -0.525521 0.850780 0.001344 
-42.389267 42.569836 134.113190 -0.781002 0.624527 0.001373 
-42.978458 41.631176 136.856583 -0.904847 0.425734 0.001302 
-43.410515 40.017967 135.736038 -0.996331 0.085581 0.001057 
-42.981358 37.618050 133.137192 -0.905318 -0.424733 0.001299 
-42.456158 36.759560 134.170471 -0.795211 -0.606331 0.001369 
-40.411198 35.219013 136.872360 -0.362873 -0.931838 0.001264 
-40.313126 35.178391 135.477509 -0.341642 -0.939829 0.001251 
-37.609230 35.002247 135.753571 0.231726 -0.972780 0.001176 
-36.926903 35.244865 137.184830 0.376001 -0.926619 0.001275 
-35.518291 36.111076 135.865860 0.671779 -0.740750 0.001379 
-34.222580 38.092648 133.716248 0.946173 -0.323658 0.001240 
-36.827911 36.204025 138.290771 0.000978 0.000978 0.999999 
-36.524899 36.308228 138.290771 0.000978 0.000978 0.999999 
-37.743130 36.590168 131.940781 0.000978 0.000978 -0.999999 
-40.062378 36.549347 131.940781 0.000978 0.000978 -0.999999 
-41.616341 36.994312 131.940781 0.000978 0.000978 -0.999999 
-42.418152 41.141125 131.940781 0.000978 0.000978 -0.999999 
-40.180622 42.395332 131.940781 0.000978 0.000978 -0.999999 
-37.095638 42.960712 131.940781 0.000978 0.000978 -0.999999 
-37.263165 41.659859 138.054947 -0.400568 -0.578598 0.710472 
-37.512676 39.165791 134.718903 0.000978 0.000978 0.999999 
-40.175663 41.052246 134.718903 0.000978 0.000978 0.999999 
-40.756847 39.794331 134.718903 0.000978 0.000978 0.999999 
-40.232853 41.485901 136.805450 0.500299 -0.865851 0.001334 
-40.778290 41.170990 137.843307 0.500299 -0.865851 0.001334 
-41.081509 39.971619 137.598358 0.999999 0.000978 0.000978 
-41.081509 40.709820 135.362686 0.999999 0.000978 0.000978 
-40.414276 37.861065 137.782486 0.500299 0.865851 0.001334 
-39.921368 37.576485 135.206787 0.500299 0.865851 0.001334 
-36.521652 38.129303 135.002655 -0.500299 0.865851 0.001334 
-36.319012 38.783051 134.846558 -0.999999 0.000978 0.000978 
-37.204411 41.507111 137.758591 -0.500299 -0.865851 0.001334 
-38.150558 42.053371 135.101044 -0.500299 -0.865851 0.001334 
-36.724777 35.384953 137.867050 0.297647 -0.638734 0.709525 
-42.797928 41.863091 137.893250 -0.620325 0.337027 0.708245 
-41.208984 -42.402493 68.905281 0.778585 0.627537 0.001373 
-41.298622 -42.285679 70.343185 0.805708 0.592312 0.001368 
-38.278645 -43.573383 68.947121 -0.130653 0.991428 0.001098 
-38.333038 -43.580547 70.784386 -0.113760 0.993508 0.001083 
-37.036945 -37.593708 70.899460 -0.512919 -0.858436 0.001339 
-37.893673 -37.235081 68.708351 -0.248977 -0.968509 0.001191 
-41.938107 39.713436 69.759872 0.999632 -0.027126 0.001005 
-37.856426 36.482956 71.035950 -0.260274 0.965534 0.001199 
-36.347622 37.394093 68.513527 -0.726206 0.687475 0.001383 
-36.239555 37.534927 70.668625 -0.762653 0.646807 0.001379 
-35.527840 40.210384 70.906830 -0.983039 -0.183394 0.001139 
38.133217 -39.744812 68.541451 0.980491 -0.196558 0.001149 
38.935299 -42.590527 68.939560 0.730182 0.683251 0.001380 
41.051804 -43.596249 68.470551 0.078785 0.996891 0.001050 
44.090023 -42.035561 69.001099 -0.859615 0.510941 0.001341 
44.534679 -40.264507 69.511040 -0.999374 -0.035367 0.001010 
44.156734 -38.856281 70.082687 -0.882755 -0.469832 0.001323 
40.819202 -37.192154 68.750610 0.150135 -0.988665 0.001112 
40.780022 -37.197311 70.294128 0.162760 -0.986665 0.001122 
39.238411 -37.899113 70.130760 0.639507 -0.768784 0.001375 
39.147770 37.210884 70.063591 0.665988 0.745961 0.001379 
39.642834 36.831009 71.081863 0.510941 0.859615 0.001341 
40.079124 36.639023 69.231613 0.379080 0.925363 0.001276 
43.900757 37.717789 69.611130 -0.806665 0.591008 0.001365 
44.406975 38.702633 71.215538 -0.959055 0.283219 0.001216 
44.515732 39.362785 69.687149 -0.996710 0.081042 0.001052 
44.524006 39.816566 69.814133 -0.998260 -0.058965 0.001034 
44.421467 40.504597 70.326599 -0.961751 -0.273924 0.001207 
42.328617 42.682613 70.648270 -0.318457 -0.947936 0.001239 
41.369530 42.861919 70.927666 -0.020933 -0.999780 0.000997 
38.290401 40.775925 70.171791 0.933019 -0.359825 0.001263 
32.911037 48.649971 68.444572 0.001007 0.029192 -0.999573 
-16.708448 48.833549 68.468750 0.001164 0.215328 -0.976541 
40.225307 48.892441 68.480034 0.001208 0.271689 -0.962384 
18.842075 48.950047 68.503899 0.001246 0.332624 -0.943059 
5.775715 49.062687 68.550552 0.001311 0.444588 -0.895734 
36.445404 49.306885 68.717300 0.001383 0.687475 -0.726206 
29.007805 49.190651 68.628113 0.001363 0.573736 -0.819039 
-28.871836 49.222122 68.652260 0.001369 0.606331 -0.795211 
24.194941 49.414799 68.846497 0.001367 0.799835 -0.600218 
-4.735141 49.402859 68.830940 0.001371 0.788169 -0.615457 
22.463329 49.557858 69.111511 0.001246 0.943059 -0.332624 
37.325073 49.561501 69.120308 0.001240 0.946173 -0.323658 
3.283974 49.576553 69.156647 0.001218 0.958193 -0.286119 
35.279160 49.603729 69.308746 0.001100 0.991102 -0.133100 
32.377342 49.616158 69.403152 0.001012 0.999298 -0.037461 
-2.992437 49.607594 69.338097 0.001073 0.994569 -0.104070 
51.043884 41.545036 69.421272 0.980656 0.194732 -0.019823 
50.886097 42.345543 69.324203 0.955405 0.271288 -0.116641 
46.619671 47.249516 68.521217 0.204216 0.311253 -0.928126 
49.432499 43.818584 68.466934 0.172469 0.101524 -0.979769 
51.291317 15.506083 69.376808 0.997991 0.001038 -0.063348 
51.296894 4.834023 69.419167 0.999780 0.000997 -0.020933 
51.277374 -26.705734 69.270905 0.985302 0.001131 -0.170816 
51.278599 -37.601295 69.280205 0.986665 0.001122 -0.162760 
51.194843 35.890778 69.010979 0.900850 0.001304 -0.434129 
51.179512 -35.656410 68.973961 0.883337 0.001320 -0.468736 
51.107826 -0.170238 68.865265 0.814654 0.001365 -0.579946 
51.112259 22.553831 68.871040 0.819039 0.001363 -0.573736 
51.130245 -31.602432 68.894485 0.834745 0.001353 -0.550634 
50.969250 29.501251 68.704819 0.673154 0.001382 -0.739501 
50.862991 -33.426231 68.623283 0.567510 0.001361 -0.823366 
50.727955 35.227142 68.545021 0.432009 0.001305 -0.901868 
50.632862 -13.259768 68.505630 0.336415 0.001251 -0.941713 
50.536633 -33.502716 68.471970 0.237800 0.001183 -0.971313 
50.381603 4.588399 68.451553 0.083483 0.001057 -0.996509 
50.329483 -0.383060 68.444687 0.031203 0.001007 -0.999513 
50.483639 -43.812679 68.982780 0.830317 -0.308046 -0.464415 
41.356865 -50.155521 68.834076 0.006877 -0.790812 -0.612020 
46.263321 -48.520885 68.623039 0.296000 -0.480805 -0.825355 
48.914280 -45.285679 68.454727 0.092419 -0.052334 -0.994344 
6.719803 -50.371426 69.384087 0.001030 -0.998393 -0.056668 
6.365303 -50.365589 69.339737 0.001071 -0.994811 -0.101730 
-13.847084 -50.362350 69.315155 0.001094 -0.992057 -0.125785 
-38.475460 -50.362614 69.317139 0.001091 -0.992091 -0.125512 
20.617428 -50.271038 69.003838 0.001307 -0.897798 -0.440405 
-10.699944 -50.277344 69.019066 0.001302 -0.904847 -0.425734 
30.124512 -50.214291 68.900864 0.001353 -0.840077 -0.542465 
-35.257904 -50.170120 68.843300 0.001368 -0.797530 -0.603278 
29.743988 -50.021088 68.683861 0.001379 -0.646807 -0.762653 
21.871040 -49.889889 68.583191 0.001339 -0.512919 -0.858436 
-27.029964 -50.000111 68.667770 0.001376 -0.625868 -0.779928 
33.799332 -49.699680 68.500519 0.001240 -0.323658 -0.946173 
-18.283966 -49.849945 68.562767 0.001325 -0.472993 -0.881065 
-32.782597 -49.849377 68.562531 0.001325 -0.472993 -0.881065 
34.839001 -49.403481 68.444008 0.001001 -0.023017 -0.999735 
18.780954 -49.617390 68.472176 0.001182 -0.240031 -0.970765 
-15.217417 -49.524834 68.459991 0.001110 -0.147635 -0.989041 
4.876148 -49.451385 68.450317 0.001047 -0.072214 -0.997389 
-48.667694 -40.445160 69.259674 -0.983281 -0.005723 -0.182004 
-39.861927 -50.047180 68.882393 -0.090727 -0.819423 -0.565963 
-39.394627 -49.658226 68.521217 -0.019307 -0.371987 -0.928037 
-46.873730 -44.429340 68.464462 -0.154958 -0.090092 -0.983805 
-43.342834 -48.224384 68.457703 -0.065050 -0.110699 -0.991723 
-48.699181 17.209614 69.432571 -0.999976 0.000985 -0.006896 
-48.693424 27.951038 69.388840 -0.998629 0.001026 -0.052343 
-48.645821 3.380005 69.132782 -0.950879 0.001233 -0.309560 
-48.651573 -6.077312 69.146667 -0.954848 0.001223 -0.297091 
-48.569592 -1.303726 68.948753 -0.870612 0.001333 -0.491969 
-48.528065 14.908203 68.890961 -0.832674 0.001354 -0.553762 
-48.420406 -3.568933 68.750656 -0.722131 0.001381 -0.691755 
-48.391087 24.273872 68.721169 -0.693136 0.001384 -0.720806 
-48.393608 -29.099180 68.723106 -0.694569 0.001381 -0.719425 
-48.214375 -0.347710 68.585579 -0.516071 0.001340 -0.856545 
-48.170860 -5.258530 68.562576 -0.472993 0.001325 -0.881065 
-48.084347 12.266158 68.526741 -0.388343 0.001282 -0.921514 
-47.940792 -23.261234 68.472443 -0.242814 0.001184 -0.970072 
-47.835892 -7.781876 68.458633 -0.137718 0.001102 -0.990471 
-47.838993 17.855587 68.459038 -0.140185 0.001104 -0.990125 
-45.918346 46.467842 69.288101 -0.716723 0.680357 -0.153042 
-43.491417 47.200275 68.441650 -0.002956 0.004926 -0.999984 
47.869396 -47.834705 69.450104 0.661530 -0.749918 0.001381 
49.754539 -45.646645 71.349731 0.848828 -0.528668 0.001345 
51.187767 -41.229420 71.230881 0.996331 -0.085581 0.001057 
51.299740 6.946625 69.761566 0.999999 0.000978 0.000978 
51.299740 29.645668 69.454147 0.999999 0.000978 0.000978 
51.299740 -9.704149 70.520317 0.999999 0.000978 0.000978 
51.299740 16.012463 70.017349 0.999999 0.000978 0.000978 
51.299740 16.987381 69.784882 0.999999 0.000978 0.000978 
51.299740 31.664421 69.496666 0.999999 0.000978 0.000978 
51.299740 4.886745 69.442169 0.999999 0.000978 0.000978 
51.299740 -29.841778 69.960854 0.999999 0.000978 0.000978 
51.299740 -35.864464 69.463615 0.999999 0.000978 0.000978 
51.299740 -14.799479 70.799065 0.999999 0.000978 0.000978 
51.299740 -9.443916 71.421387 0.999999 0.000978 0.000978 
51.299740 26.562206 69.922493 0.999999 0.000978 0.000978 
51.299740 20.959984 71.408180 0.999999 0.000978 0.000978 
51.299740 31.978291 71.146042 0.999999 0.000978 0.000978 
51.299740 28.317146 70.629745 0.999999 0.000978 0.000978 
51.299740 -0.085196 70.666328 0.999999 0.000978 0.000978 
51.299740 36.166050 70.445656 0.999999 0.000978 0.000978 
51.299740 -6.864719 70.654968 0.999999 0.000978 0.000978 
51.299740 4.140743 71.022636 0.999999 0.000978 0.000978 
51.299740 16.043510 71.101990 0.999999 0.000978 0.000978 
49.782410 44.852543 71.042747 0.850780 0.525521 0.001344 
43.330635 49.353737 70.493492 0.205018 0.978758 0.001158 
-28.584644 49.621109 69.548370 0.000978 0.999999 0.000978 
9.759068 49.621109 69.964264 0.000978 0.999999 0.000978 
-28.130436 49.621109 69.517609 0.000978 0.999999 0.000978 
25.562439 49.621109 69.960175 0.000978 0.999999 0.000978 
25.468466 49.621109 70.483452 0.000978 0.999999 0.000978 
17.717093 49.621109 70.297508 0.000978 0.999999 0.000978 
16.865955 49.621109 69.627617 0.000978 0.999999 0.000978 
31.021534 49.621109 70.905487 0.000978 0.999999 0.000978 
2.275524 49.621109 69.600060 0.000978 0.999999 0.000978 
-32.961346 49.621109 69.554665 0.000978 0.999999 0.000978 
-34.467617 49.621109 70.818878 0.000978 0.999999 0.000978 
27.870523 49.621109 71.368523 0.000978 0.999999 0.000978 
3.672886 49.621109 71.094070 0.000978 0.999999 0.000978 
-32.391647 49.621109 71.184380 0.000978 0.999999 0.000978 
33.931160 49.621109 71.296227 0.000978 0.999999 0.000978 
-17.558216 49.621109 70.221420 0.000978 0.999999 0.000978 
-25.603146 49.621109 70.485596 0.000978 0.999999 0.000978 
-22.050873 49.621109 70.229462 0.000978 0.999999 0.000978 
-17.445435 49.621109 71.192200 0.000978 0.999999 0.000978 
4.702623 49.621109 71.140999 0.000978 0.999999 0.000978 
-17.236959 49.621109 70.997307 0.000978 0.999999 0.000978 
-37.265564 -31.127102 68.440773 0.000978 0.000978 -0.999999 
-43.128021 -35.928173 68.440773 0.000978 0.000978 -0.999999 
-36.794083 -31.939222 68.440773 0.000978 0.000978 -0.999999 
-32.201530 -23.557991 68.440773 0.000978 0.000978 -0.999999 
-36.299324 -28.439169 68.440773 0.000978 0.000978 -0.999999 
-40.033947 -32.393509 68.440773 0.000978 0.000978 -0.999999 
-44.134716 -37.201527 68.440773 0.000978 0.000978 -0.999999 
-29.864735 -22.053160 68.440773 0.000978 0.000978 -0.999999 
-31.928186 -28.270067 68.440773 0.000978 0.000978 -0.999999 
-32.672367 -29.036278 68.440773 0.000978 0.000978 -0.999999 
-32.078766 -26.889885 68.440773 0.000978 0.000978 -0.999999 
-38.154316 -35.392632 68.440773 0.000978 0.000978 -0.999999 
-28.882437 -20.280035 68.440773 0.000978 0.000978 -0.999999 
-27.067881 -23.140181 68.440773 0.000978 0.000978 -0.999999 
-25.656105 -26.830223 68.440773 0.000978 0.000978 -0.999999 
-24.687546 -26.794941 68.440773 0.000978 0.000978 -0.999999 
-20.915447 -26.873451 68.440773 0.000978 0.000978 -0.999999 
-25.230145 -28.769724 68.440773 0.000978 0.000978 -0.999999 
-22.356569 -28.431974 68.440773 0.000978 0.000978 -0.999999 
-22.822136 -28.865477 68.440773 0.000978 0.000978 -0.999999 
-25.090218 -31.178322 68.440773 0.000978 0.000978 -0.999999 
-20.671833 -30.798306 68.440773 0.000978 0.000978 -0.999999 
-26.248796 -35.119686 68.440773 0.000978 0.000978 -0.999999 
-22.571503 -32.932205 68.440773 0.000978 0.000978 -0.999999 
-23.787550 -33.378353 68.440773 0.000978 0.000978 -0.999999 
-30.203457 -36.647911 68.440773 0.000978 0.000978 -0.999999 
-21.726084 -31.939171 68.440773 0.000978 0.000978 -0.999999 
-32.976070 -42.018318 68.440773 0.000978 0.000978 -0.999999 
-34.262272 -41.877651 68.440773 0.000978 0.000978 -0.999999 
-28.890104 -37.604027 68.440773 0.000978 0.000978 -0.999999 
-36.365509 -46.720306 68.440773 0.000978 0.000978 -0.999999 
-26.823250 -36.460922 68.440773 0.000978 0.000978 -0.999999 
-30.042894 -39.891891 68.440773 0.000978 0.000978 -0.999999 
-38.672493 -47.435928 68.440773 0.000978 0.000978 -0.999999 
-39.033119 -47.478687 68.440773 0.000978 0.000978 -0.999999 
-41.762142 -48.628643 68.440773 0.000978 0.000978 -0.999999 
-42.862652 -46.959743 68.440773 0.000978 0.000978 -0.999999 
-46.070881 -43.622231 68.440773 0.000978 0.000978 -0.999999 
-29.387848 -33.581181 68.440773 0.000978 0.000978 -0.999999 
-34.174133 -37.474640 68.440773 0.000978 0.000978 -0.999999 
-35.753597 -37.308876 68.440773 0.000978 0.000978 -0.999999 
-33.794704 -34.038879 68.440773 0.000978 0.000978 -0.999999 
-38.931114 30.512844 68.440773 0.000978 0.000978 -0.999999 
-42.657616 34.510326 68.440773 0.000978 0.000978 -0.999999 
-43.181236 36.924572 68.440773 0.000978 0.000978 -0.999999 
-42.967106 36.825855 68.440773 0.000978 0.000978 -0.999999 
-43.494209 36.065674 68.440773 0.000978 0.000978 -0.999999 
-42.596298 36.892559 68.440773 0.000978 0.000978 -0.999999 
-31.210072 22.635389 68.440773 0.000978 0.000978 -0.999999 
-31.088186 24.874447 68.440773 0.000978 0.000978 -0.999999 
-30.561773 26.300644 68.440773 0.000978 0.000978 -0.999999 
-32.218143 26.658167 68.440773 0.000978 0.000978 -0.999999 
-33.547497 26.495461 68.440773 0.000978 0.000978 -0.999999 
-30.104452 25.254807 68.440773 0.000978 0.000978 -0.999999 
-29.495567 22.888006 68.440773 0.000978 0.000978 -0.999999 
-26.611715 22.696762 68.440773 0.000978 0.000978 -0.999999 
-23.530849 24.582075 68.440773 0.000978 0.000978 -0.999999 
-22.035830 24.783377 68.440773 0.000978 0.000978 -0.999999 
-24.093924 24.434954 68.440773 0.000978 0.000978 -0.999999 
-25.265352 27.671547 68.440773 0.000978 0.000978 -0.999999 
-22.528299 27.706203 68.440773 0.000978 0.000978 -0.999999 
-23.961966 28.679291 68.440773 0.000978 0.000978 -0.999999 
-19.503298 29.264641 68.440773 0.000978 0.000978 -0.999999 
-21.715719 30.392670 68.440773 0.000978 0.000978 -0.999999 
-28.824774 36.259712 68.440773 0.000978 0.000978 -0.999999 
-19.208628 30.407488 68.440773 0.000978 0.000978 -0.999999 
-28.585026 35.322346 68.440773 0.000978 0.000978 -0.999999 
-24.647648 33.057648 68.440773 0.000978 0.000978 -0.999999 
-24.458164 33.494919 68.440773 0.000978 0.000978 -0.999999 
-28.272406 37.750755 68.440773 0.000978 0.000978 -0.999999 
-35.027122 44.325539 68.440773 0.000978 0.000978 -0.999999 
-23.328968 33.504711 68.440773 0.000978 0.000978 -0.999999 
-35.183655 41.192963 68.440773 0.000978 0.000978 -0.999999 
-32.049931 39.792007 68.440773 0.000978 0.000978 -0.999999 
-21.067631 32.397938 68.440773 0.000978 0.000978 -0.999999 
-26.388941 36.153770 68.440773 0.000978 0.000978 -0.999999 
-36.533951 42.329086 68.440773 0.000978 0.000978 -0.999999 
-38.186012 35.071156 68.440773 0.000978 0.000978 -0.999999 
-32.805317 30.429827 68.440773 0.000978 0.000978 -0.999999 
-34.941681 33.453274 68.440773 0.000978 0.000978 -0.999999 
-36.146294 34.935841 68.440773 0.000978 0.000978 -0.999999 
-33.452965 33.443474 68.440773 0.000978 0.000978 -0.999999 
-32.911270 33.377892 68.440773 0.000978 0.000978 -0.999999 
-35.319836 39.436462 68.440773 0.000978 0.000978 -0.999999 
-34.974197 39.691978 68.440773 0.000978 0.000978 -0.999999 
-28.048653 32.399498 68.440773 0.000978 0.000978 -0.999999 
-39.518753 48.030518 68.440773 0.000978 0.000978 -0.999999 
-41.882294 47.453457 68.440773 0.000978 0.000978 -0.999999 
-43.142647 44.684559 68.440773 0.000978 0.000978 -0.999999 
-41.168755 42.759933 68.440773 0.000978 0.000978 -0.999999 
-44.074173 44.914883 68.440773 0.000978 0.000978 -0.999999 
-44.168488 41.910625 68.440773 0.000978 0.000978 -0.999999 
-43.956470 41.481457 68.440773 0.000978 0.000978 -0.999999 
-45.321579 40.900185 68.440773 0.000978 0.000978 -0.999999 
37.334145 -39.026459 68.440773 0.000978 0.000978 -0.999999 
32.440144 -33.909367 68.440773 0.000978 0.000978 -0.999999 
36.405842 -35.996563 68.440773 0.000978 0.000978 -0.999999 
34.545025 -34.177162 68.440773 0.000978 0.000978 -0.999999 
37.927086 -41.020245 68.440773 0.000978 0.000978 -0.999999 
29.446955 -35.658573 68.440773 0.000978 0.000978 -0.999999 
30.399504 -33.026024 68.440773 0.000978 0.000978 -0.999999 
32.673904 -36.406021 68.440773 0.000978 0.000978 -0.999999 
24.887335 -31.903019 68.440773 0.000978 0.000978 -0.999999 
25.691921 -32.416309 68.440773 0.000978 0.000978 -0.999999 
32.850842 -39.234371 68.440773 0.000978 0.000978 -0.999999 
25.203766 -34.659470 68.440773 0.000978 0.000978 -0.999999 
36.275581 -42.016472 68.440773 0.000978 0.000978 -0.999999 
36.475239 -44.908615 68.440773 0.000978 0.000978 -0.999999 
35.323837 -41.442276 68.440773 0.000978 0.000978 -0.999999 
37.938728 -45.968369 68.440773 0.000978 0.000978 -0.999999 
39.447144 -46.409412 68.440773 0.000978 0.000978 -0.999999 
-1.004858 -49.035500 68.440773 0.000978 0.000978 -0.999999 
-16.326902 -45.078911 68.440773 0.000978 0.000978 -0.999999 
21.543766 -46.592327 68.440773 0.000978 0.000978 -0.999999 
-5.442146 -44.082436 68.440773 0.000978 0.000978 -0.999999 
12.113626 -47.501499 68.440773 0.000978 0.000978 -0.999999 
30.249489 -49.038967 68.440773 0.000978 0.000978 -0.999999 
1.296047 -47.120441 68.440773 0.000978 0.000978 -0.999999 
-2.152536 -46.199638 68.440773 0.000978 0.000978 -0.999999 
21.710850 -35.430874 68.440773 0.000978 0.000978 -0.999999 
-15.498697 -48.237804 68.440773 0.000978 0.000978 -0.999999 
-11.822515 -44.044086 68.440773 0.000978 0.000978 -0.999999 
8.630819 -34.405766 68.440773 0.000978 0.000978 -0.999999 
8.972292 -42.273266 68.440773 0.000978 0.000978 -0.999999 
29.624922 -42.768707 68.440773 0.000978 0.000978 -0.999999 
-5.639400 -43.972763 68.440773 0.000978 0.000978 -0.999999 
-26.617268 -46.671391 68.440773 0.000978 0.000978 -0.999999 
-11.050344 -43.965763 68.440773 0.000978 0.000978 -0.999999 
25.064100 -49.012356 68.440773 0.000978 0.000978 -0.999999 
21.802382 -32.807034 68.440773 0.000978 0.000978 -0.999999 
-2.811644 -47.222630 68.440773 0.000978 0.000978 -0.999999 
22.623064 -38.357300 68.440773 0.000978 0.000978 -0.999999 
12.055365 -34.040504 68.440773 0.000978 0.000978 -0.999999 
11.984695 -42.942020 68.440773 0.000978 0.000978 -0.999999 
2.138353 -41.004715 68.440773 0.000978 0.000978 -0.999999 
-2.512222 -46.155998 68.440773 0.000978 0.000978 -0.999999 
-9.606981 -46.523018 68.440773 0.000978 0.000978 -0.999999 
-5.724049 -43.405231 68.440773 0.000978 0.000978 -0.999999 
-0.509846 -37.849873 68.440773 0.000978 0.000978 -0.999999 
14.610423 -43.739071 68.440773 0.000978 0.000978 -0.999999 
12.504187 -46.603493 68.440773 0.000978 0.000978 -0.999999 
25.847607 -47.958305 68.440773 0.000978 0.000978 -0.999999 
21.740902 -40.601528 68.440773 0.000978 0.000978 -0.999999 
27.957119 -38.656986 68.440773 0.000978 0.000978 -0.999999 
18.503862 -38.629642 68.440773 0.000978 0.000978 -0.999999 
12.713458 -34.644726 68.440773 0.000978 0.000978 -0.999999 
-12.584045 -41.484512 68.440773 0.000978 0.000978 -0.999999 
-14.590313 -49.091980 68.440773 0.000978 0.000978 -0.999999 
15.494236 -34.263111 68.440773 0.000978 0.000978 -0.999999 
-7.979317 -48.476482 68.440773 0.000978 0.000978 -0.999999 
24.624775 -35.970680 68.440773 0.000978 0.000978 -0.999999 
-19.964327 -43.602135 68.440773 0.000978 0.000978 -0.999999 
-18.788309 -46.324055 68.440773 0.000978 0.000978 -0.999999 
-24.261734 -45.197014 68.440773 0.000978 0.000978 -0.999999 
35.014931 -49.283249 68.440773 0.000978 0.000978 -0.999999 
5.713871 -44.996586 68.440773 0.000978 0.000978 -0.999999 
9.885754 -39.205490 68.440773 0.000978 0.000978 -0.999999 
28.208216 -38.972916 68.440773 0.000978 0.000978 -0.999999 
-22.086889 -48.832615 68.440773 0.000978 0.000978 -0.999999 
6.506117 -41.644550 68.440773 0.000978 0.000978 -0.999999 
29.828222 -48.376743 68.440773 0.000978 0.000978 -0.999999 
23.005066 -48.578991 68.440773 0.000978 0.000978 -0.999999 
6.387638 -48.746929 68.440773 0.000978 0.000978 -0.999999 
29.075586 -40.564110 68.440773 0.000978 0.000978 -0.999999 
-33.881592 -48.022911 68.440773 0.000978 0.000978 -0.999999 
18.037231 -41.811008 68.440773 0.000978 0.000978 -0.999999 
10.915384 -42.688335 68.440773 0.000978 0.000978 -0.999999 
-20.410027 -46.476799 68.440773 0.000978 0.000978 -0.999999 
24.275448 -40.010750 68.440773 0.000978 0.000978 -0.999999 
-7.677418 -43.866482 68.440773 0.000978 0.000978 -0.999999 
6.026094 -37.820038 68.440773 0.000978 0.000978 -0.999999 
-14.402124 -42.672997 68.440773 0.000978 0.000978 -0.999999 
-26.241318 -47.847511 68.440773 0.000978 0.000978 -0.999999 
0.541847 -40.037033 68.440773 0.000978 0.000978 -0.999999 
10.824347 -45.709042 68.440773 0.000978 0.000978 -0.999999 
17.486526 -44.957706 68.440773 0.000978 0.000978 -0.999999 
7.154600 -41.517349 68.440773 0.000978 0.000978 -0.999999 
11.964562 -35.096039 68.440773 0.000978 0.000978 -0.999999 
19.262175 -47.102322 68.440773 0.000978 0.000978 -0.999999 
-34.256874 -49.209900 68.440773 0.000978 0.000978 -0.999999 
4.389948 -42.945549 68.440773 0.000978 0.000978 -0.999999 
31.801487 -46.093472 68.440773 0.000978 0.000978 -0.999999 
13.623991 -35.809322 68.440773 0.000978 0.000978 -0.999999 
9.518171 -35.763203 68.440773 0.000978 0.000978 -0.999999 
-11.723211 -44.686810 68.440773 0.000978 0.000978 -0.999999 
19.180695 -44.698666 68.440773 0.000978 0.000978 -0.999999 
27.167439 -48.910046 68.440773 0.000978 0.000978 -0.999999 
-1.647789 -39.966511 68.440773 0.000978 0.000978 -0.999999 
12.568610 -40.086140 68.440773 0.000978 0.000978 -0.999999 
0.323223 -44.120529 68.440773 0.000978 0.000978 -0.999999 
10.843567 -41.289661 68.440773 0.000978 0.000978 -0.999999 
18.599607 -48.284355 68.440773 0.000978 0.000978 -0.999999 
-21.609812 -46.908566 68.440773 0.000978 0.000978 -0.999999 
2.343283 -42.488956 68.440773 0.000978 0.000978 -0.999999 
22.400894 -32.506916 68.440773 0.000978 0.000978 -0.999999 
-11.051479 -48.466618 68.440773 0.000978 0.000978 -0.999999 
0.184362 -43.858971 68.440773 0.000978 0.000978 -0.999999 
23.153519 -47.381771 68.440773 0.000978 0.000978 -0.999999 
7.619692 -43.387180 68.440773 0.000978 0.000978 -0.999999 
-13.415592 -46.394497 68.440773 0.000978 0.000978 -0.999999 
3.884989 -44.138405 68.440773 0.000978 0.000978 -0.999999 
30.416573 -43.675575 68.440773 0.000978 0.000978 -0.999999 
18.057795 -43.792229 68.440773 0.000978 0.000978 -0.999999 
13.265527 -34.996937 68.440773 0.000978 0.000978 -0.999999 
0.052238 -46.850010 68.440773 0.000978 0.000978 -0.999999 
8.736892 -36.036304 68.440773 0.000978 0.000978 -0.999999 
-12.888081 -45.810688 68.440773 0.000978 0.000978 -0.999999 
13.417119 -35.885811 68.440773 0.000978 0.000978 -0.999999 
-20.673786 -46.065437 68.440773 0.000978 0.000978 -0.999999 
42.052570 -46.951809 68.440773 0.000978 0.000978 -0.999999 
42.892860 -44.545681 68.440773 0.000978 0.000978 -0.999999 
43.973190 -45.232502 68.440773 0.000978 0.000978 -0.999999 
47.030388 -47.053810 68.440773 0.000978 0.000978 -0.999999 
44.090771 -43.809002 68.440773 0.000978 0.000978 -0.999999 
47.271255 -44.184414 68.440773 0.000978 0.000978 -0.999999 
46.897339 -42.538052 68.440773 0.000978 0.000978 -0.999999 
44.830357 -41.818790 68.440773 0.000978 0.000978 -0.999999 
49.333767 -41.723042 68.440773 0.000978 0.000978 -0.999999 
38.341553 -31.458204 68.440773 0.000978 0.000978 -0.999999 
36.441101 -27.660713 68.440773 0.000978 0.000978 -0.999999 
34.532631 -25.037779 68.440773 0.000978 0.000978 -0.999999 
33.053177 -22.462143 68.440773 0.000978 0.000978 -0.999999 
44.594345 -37.623802 68.440773 0.000978 0.000978 -0.999999 
42.313366 -33.003174 68.440773 0.000978 0.000978 -0.999999 
44.896423 -37.915276 68.440773 0.000978 0.000978 -0.999999 
35.059521 -24.250889 68.440773 0.000978 0.000978 -0.999999 
45.082836 -36.879498 68.440773 0.000978 0.000978 -0.999999 
33.916985 -22.645477 68.440773 0.000978 0.000978 -0.999999 
39.606625 -29.341446 68.440773 0.000978 0.000978 -0.999999 
44.369385 -33.130390 68.440773 0.000978 0.000978 -0.999999 
36.208511 3.325893 68.440773 0.000978 0.000978 -0.999999 
33.414555 -12.868914 68.440773 0.000978 0.000978 -0.999999 
32.243118 9.074833 68.440773 0.000978 0.000978 -0.999999 
36.082878 -16.069206 68.440773 0.000978 0.000978 -0.999999 
46.952427 -35.015224 68.440773 0.000978 0.000978 -0.999999 
33.918137 9.518810 68.440773 0.000978 0.000978 -0.999999 
32.931995 -6.578775 68.440773 0.000978 0.000978 -0.999999 
34.505417 7.746960 68.440773 0.000978 0.000978 -0.999999 
31.853493 -11.715191 68.440773 0.000978 0.000978 -0.999999 
41.316490 -21.810631 68.440773 0.000978 0.000978 -0.999999 
39.022873 -10.198078 68.440773 0.000978 0.000978 -0.999999 
37.546158 -24.997086 68.440773 0.000978 0.000978 -0.999999 
38.798294 -24.115429 68.440773 0.000978 0.000978 -0.999999 
36.321323 -4.623156 68.440773 0.000978 0.000978 -0.999999 
32.757591 11.790428 68.440773 0.000978 0.000978 -0.999999 
40.028275 -19.152143 68.440773 0.000978 0.000978 -0.999999 
32.176067 -4.221354 68.440773 0.000978 0.000978 -0.999999 
42.761009 -31.242355 68.440773 0.000978 0.000978 -0.999999 
35.336197 -9.711988 68.440773 0.000978 0.000978 -0.999999 
37.133842 -8.619921 68.440773 0.000978 0.000978 -0.999999 
44.124771 -21.862240 68.440773 0.000978 0.000978 -0.999999 
40.890682 -27.639566 68.440773 0.000978 0.000978 -0.999999 
36.005852 1.170734 68.440773 0.000978 0.000978 -0.999999 
32.010666 14.782829 68.440773 0.000978 0.000978 -0.999999 
40.369610 -22.164955 68.440773 0.000978 0.000978 -0.999999 
38.546936 -17.828136 68.440773 0.000978 0.000978 -0.999999 
41.613583 -18.227371 68.440773 0.000978 0.000978 -0.999999 
32.327938 -9.388638 68.440773 0.000978 0.000978 -0.999999 
42.554646 -28.002834 68.440773 0.000978 0.000978 -0.999999 
33.525677 -3.239695 68.440773 0.000978 0.000978 -0.999999 
45.180271 -33.015102 68.440773 0.000978 0.000978 -0.999999 
42.282116 -31.463453 68.440773 0.000978 0.000978 -0.999999 
42.263710 -21.652603 68.440773 0.000978 0.000978 -0.999999 
40.607662 -12.894535 68.440773 0.000978 0.000978 -0.999999 
47.703087 -34.086609 68.440773 0.000978 0.000978 -0.999999 
31.617195 1.820581 68.440773 0.000978 0.000978 -0.999999 
37.249096 -22.282177 68.440773 0.000978 0.000978 -0.999999 
35.477341 -20.804663 68.440773 0.000978 0.000978 -0.999999 
34.228115 -5.133900 68.440773 0.000978 0.000978 -0.999999 
41.260559 -19.254299 68.440773 0.000978 0.000978 -0.999999 
38.190331 -13.660412 68.440773 0.000978 0.000978 -0.999999 
33.153423 -9.622564 68.440773 0.000978 0.000978 -0.999999 
34.344345 -10.009525 68.440773 0.000978 0.000978 -0.999999 
33.007599 -13.166664 68.440773 0.000978 0.000978 -0.999999 
33.999107 -4.329382 68.440773 0.000978 0.000978 -0.999999 
42.891876 8.135036 68.440773 0.000978 0.000978 -0.999999 
41.303055 0.223381 68.440773 0.000978 0.000978 -0.999999 
48.270885 -31.284773 68.440773 0.000978 0.000978 -0.999999 
40.233513 13.084063 68.440773 0.000978 0.000978 -0.999999 
49.631142 37.479404 68.440773 0.000978 0.000978 -0.999999 
46.132866 22.617889 68.440773 0.000978 0.000978 -0.999999 
47.981392 17.214333 68.440773 0.000978 0.000978 -0.999999 
45.283321 -23.985849 68.440773 0.000978 0.000978 -0.999999 
49.067417 -32.194714 68.440773 0.000978 0.000978 -0.999999 
50.205742 -22.151890 68.440773 0.000978 0.000978 -0.999999 
46.318928 -8.076311 68.440773 0.000978 0.000978 -0.999999 
46.764668 -3.734541 68.440773 0.000978 0.000978 -0.999999 
48.258480 -29.111782 68.440773 0.000978 0.000978 -0.999999 
48.897305 17.961891 68.440773 0.000978 0.000978 -0.999999 
41.195129 11.813046 68.440773 0.000978 0.000978 -0.999999 
34.545532 17.915871 68.440773 0.000978 0.000978 -0.999999 
37.628090 21.337591 68.440773 0.000978 0.000978 -0.999999 
46.960617 -15.418878 68.440773 0.000978 0.000978 -0.999999 
40.786205 16.772728 68.440773 0.000978 0.000978 -0.999999 
44.386009 4.817589 68.440773 0.000978 0.000978 -0.999999 
46.274673 21.156223 68.440773 0.000978 0.000978 -0.999999 
45.414062 26.016666 68.440773 0.000978 0.000978 -0.999999 
48.080486 22.640350 68.440773 0.000978 0.000978 -0.999999 
38.535057 7.856499 68.440773 0.000978 0.000978 -0.999999 
38.662804 6.772421 68.440773 0.000978 0.000978 -0.999999 
45.864166 -18.768755 68.440773 0.000978 0.000978 -0.999999 
42.351871 15.669870 68.440773 0.000978 0.000978 -0.999999 
39.308971 -4.666121 68.440773 0.000978 0.000978 -0.999999 
48.923946 -26.686590 68.440773 0.000978 0.000978 -0.999999 
36.329430 5.060309 68.440773 0.000978 0.000978 -0.999999 
35.526859 9.640551 68.440773 0.000978 0.000978 -0.999999 
47.797710 25.641346 68.440773 0.000978 0.000978 -0.999999 
43.484192 10.207230 68.440773 0.000978 0.000978 -0.999999 
45.797245 -24.174223 68.440773 0.000978 0.000978 -0.999999 
49.298965 -19.679935 68.440773 0.000978 0.000978 -0.999999 
48.412437 22.434601 68.440773 0.000978 0.000978 -0.999999 
45.478786 -7.489092 68.440773 0.000978 0.000978 -0.999999 
47.395199 5.102333 68.440773 0.000978 0.000978 -0.999999 
44.131783 8.931046 68.440773 0.000978 0.000978 -0.999999 
49.121441 37.245430 68.440773 0.000978 0.000978 -0.999999 
42.624702 0.168074 68.440773 0.000978 0.000978 -0.999999 
50.170620 -21.642624 68.440773 0.000978 0.000978 -0.999999 
45.475285 -8.437151 68.440773 0.000978 0.000978 -0.999999 
39.698647 9.853548 68.440773 0.000978 0.000978 -0.999999 
45.895782 -24.195295 68.440773 0.000978 0.000978 -0.999999 
34.174721 21.087822 68.440773 0.000978 0.000978 -0.999999 
47.118362 -22.272781 68.440773 0.000978 0.000978 -0.999999 
42.533543 -10.954416 68.440773 0.000978 0.000978 -0.999999 
47.468651 -13.727739 68.440773 0.000978 0.000978 -0.999999 
46.663979 -1.950645 68.440773 0.000978 0.000978 -0.999999 
35.833237 5.327138 68.440773 0.000978 0.000978 -0.999999 
41.320007 17.892435 68.440773 0.000978 0.000978 -0.999999 
49.614120 -13.590061 68.440773 0.000978 0.000978 -0.999999 
44.931519 12.721632 68.440773 0.000978 0.000978 -0.999999 
43.579208 -15.587182 68.440773 0.000978 0.000978 -0.999999 
45.486553 -14.533612 68.440773 0.000978 0.000978 -0.999999 
41.298336 28.224005 68.440773 0.000978 0.000978 -0.999999 
45.768093 -4.122675 68.440773 0.000978 0.000978 -0.999999 
48.312778 -28.944855 68.440773 0.000978 0.000978 -0.999999 
43.234459 23.805414 68.440773 0.000978 0.000978 -0.999999 
45.584335 20.273268 68.440773 0.000978 0.000978 -0.999999 
46.670235 -5.930744 68.440773 0.000978 0.000978 -0.999999 
42.558411 13.787867 68.440773 0.000978 0.000978 -0.999999 
41.038464 0.968781 68.440773 0.000978 0.000978 -0.999999 
45.705719 -1.376751 68.440773 0.000978 0.000978 -0.999999 
49.347034 1.949230 68.440773 0.000978 0.000978 -0.999999 
47.836559 -13.719208 68.440773 0.000978 0.000978 -0.999999 
47.710197 18.717022 68.440773 0.000978 0.000978 -0.999999 
47.792843 7.005371 68.440773 0.000978 0.000978 -0.999999 
32.865601 20.071241 68.440773 0.000978 0.000978 -0.999999 
47.130322 26.192400 68.440773 0.000978 0.000978 -0.999999 
33.018486 15.251464 68.440773 0.000978 0.000978 -0.999999 
39.785248 -0.841626 68.440773 0.000978 0.000978 -0.999999 
46.121216 31.062538 68.440773 0.000978 0.000978 -0.999999 
44.572803 -16.649839 68.440773 0.000978 0.000978 -0.999999 
40.286545 5.807125 68.440773 0.000978 0.000978 -0.999999 
40.944984 -11.272554 68.440773 0.000978 0.000978 -0.999999 
39.847820 24.251114 68.440773 0.000978 0.000978 -0.999999 
41.219574 -8.343378 68.440773 0.000978 0.000978 -0.999999 
42.869415 26.574324 68.440773 0.000978 0.000978 -0.999999 
48.641499 19.933754 68.440773 0.000978 0.000978 -0.999999 
46.843746 -7.136347 68.440773 0.000978 0.000978 -0.999999 
42.110909 27.846920 68.440773 0.000978 0.000978 -0.999999 
44.821968 2.009790 68.440773 0.000978 0.000978 -0.999999 
42.260918 4.445868 68.440773 0.000978 0.000978 -0.999999 
46.206055 -5.776121 68.440773 0.000978 0.000978 -0.999999 
47.951691 10.298626 68.440773 0.000978 0.000978 -0.999999 
48.100677 -18.292732 68.440773 0.000978 0.000978 -0.999999 
43.901367 10.950962 68.440773 0.000978 0.000978 -0.999999 
37.726551 9.831875 68.440773 0.000978 0.000978 -0.999999 
46.788876 -3.037683 68.440773 0.000978 0.000978 -0.999999 
47.151325 0.048817 68.440773 0.000978 0.000978 -0.999999 
48.048950 25.063782 68.440773 0.000978 0.000978 -0.999999 
45.100410 29.861559 68.440773 0.000978 0.000978 -0.999999 
44.484959 6.935755 68.440773 0.000978 0.000978 -0.999999 
33.857338 19.300329 68.440773 0.000978 0.000978 -0.999999 
41.556080 -11.404702 68.440773 0.000978 0.000978 -0.999999 
49.292397 -1.924133 68.440773 0.000978 0.000978 -0.999999 
37.989563 28.935450 68.440773 0.000978 0.000978 -0.999999 
39.845901 29.918991 68.440773 0.000978 0.000978 -0.999999 
44.132469 37.225166 68.440773 0.000978 0.000978 -0.999999 
39.430363 29.288223 68.440773 0.000978 0.000978 -0.999999 
46.863636 36.767212 68.440773 0.000978 0.000978 -0.999999 
46.111534 36.246078 68.440773 0.000978 0.000978 -0.999999 
44.058182 34.506409 68.440773 0.000978 0.000978 -0.999999 
41.584862 -37.062325 68.440773 0.000978 0.000978 -0.999999 
37.847416 -34.461418 68.440773 0.000978 0.000978 -0.999999 
35.154884 -32.480633 68.440773 0.000978 0.000978 -0.999999 
37.979576 -36.835869 68.440773 0.000978 0.000978 -0.999999 
31.556889 33.985062 68.440773 0.000978 0.000978 -0.999999 
32.720264 35.640102 68.440773 0.000978 0.000978 -0.999999 
34.554886 37.435329 68.440773 0.000978 0.000978 -0.999999 
25.044384 31.110752 68.440773 0.000978 0.000978 -0.999999 
30.250233 36.816551 68.440773 0.000978 0.000978 -0.999999 
30.125263 36.021648 68.440773 0.000978 0.000978 -0.999999 
38.841896 45.991806 68.440773 0.000978 0.000978 -0.999999 
22.603506 31.281364 68.440773 0.000978 0.000978 -0.999999 
37.071949 41.433899 68.440773 0.000978 0.000978 -0.999999 
30.935730 38.386421 68.440773 0.000978 0.000978 -0.999999 
32.239933 40.065388 68.440773 0.000978 0.000978 -0.999999 
18.117237 32.215046 68.440773 0.000978 0.000978 -0.999999 
-9.726768 32.095795 68.440773 0.000978 0.000978 -0.999999 
5.548388 29.819466 68.440773 0.000978 0.000978 -0.999999 
7.487236 35.480515 68.440773 0.000978 0.000978 -0.999999 
-0.517624 34.874222 68.440773 0.000978 0.000978 -0.999999 
33.846519 44.025475 68.440773 0.000978 0.000978 -0.999999 
-13.295830 30.225470 68.440773 0.000978 0.000978 -0.999999 
34.471481 43.339443 68.440773 0.000978 0.000978 -0.999999 
11.768024 35.852909 68.440773 0.000978 0.000978 -0.999999 
4.313061 34.504337 68.440773 0.000978 0.000978 -0.999999 
0.628685 31.280764 68.440773 0.000978 0.000978 -0.999999 
19.987362 31.155827 68.440773 0.000978 0.000978 -0.999999 
6.099710 35.026257 68.440773 0.000978 0.000978 -0.999999 
14.335619 38.681923 68.440773 0.000978 0.000978 -0.999999 
9.871063 33.996109 68.440773 0.000978 0.000978 -0.999999 
3.650232 30.677113 68.440773 0.000978 0.000978 -0.999999 
4.955048 30.456532 68.440773 0.000978 0.000978 -0.999999 
19.360430 34.077095 68.440773 0.000978 0.000978 -0.999999 
7.112658 33.388866 68.440773 0.000978 0.000978 -0.999999 
3.397415 30.621796 68.440773 0.000978 0.000978 -0.999999 
4.847069 30.065863 68.440773 0.000978 0.000978 -0.999999 
36.864716 47.116787 68.440773 0.000978 0.000978 -0.999999 
29.946169 43.589550 68.440773 0.000978 0.000978 -0.999999 
25.779175 42.197056 68.440773 0.000978 0.000978 -0.999999 
0.605316 29.654522 68.440773 0.000978 0.000978 -0.999999 
24.364468 38.831749 68.440773 0.000978 0.000978 -0.999999 
23.054079 41.746319 68.440773 0.000978 0.000978 -0.999999 
2.080479 33.996544 68.440773 0.000978 0.000978 -0.999999 
-0.505287 32.430298 68.440773 0.000978 0.000978 -0.999999 
10.592110 32.879684 68.440773 0.000978 0.000978 -0.999999 
3.600826 34.690353 68.440773 0.000978 0.000978 -0.999999 
24.447712 35.541698 68.440773 0.000978 0.000978 -0.999999 
32.781651 41.323772 68.440773 0.000978 0.000978 -0.999999 
15.189686 34.101086 68.440773 0.000978 0.000978 -0.999999 
-12.249977 30.321146 68.440773 0.000978 0.000978 -0.999999 
19.562559 33.694126 68.440773 0.000978 0.000978 -0.999999 
17.902889 30.671417 68.440773 0.000978 0.000978 -0.999999 
25.317038 40.507648 68.440773 0.000978 0.000978 -0.999999 
21.973953 39.464924 68.440773 0.000978 0.000978 -0.999999 
-6.050018 31.325094 68.440773 0.000978 0.000978 -0.999999 
26.960091 36.765709 68.440773 0.000978 0.000978 -0.999999 
21.757984 32.030247 68.440773 0.000978 0.000978 -0.999999 
9.931341 32.387482 68.440773 0.000978 0.000978 -0.999999 
28.374571 38.425201 68.440773 0.000978 0.000978 -0.999999 
26.793053 36.090828 68.440773 0.000978 0.000978 -0.999999 
23.370205 35.044937 68.440773 0.000978 0.000978 -0.999999 
30.185366 42.021622 68.440773 0.000978 0.000978 -0.999999 
-2.809711 48.336304 68.440773 0.000978 0.000978 -0.999999 
1.799686 48.576172 68.440773 0.000978 0.000978 -0.999999 
-11.496639 32.230812 68.440773 0.000978 0.000978 -0.999999 
-17.275656 29.973318 68.440773 0.000978 0.000978 -0.999999 
-13.733154 48.235317 68.440773 0.000978 0.000978 -0.999999 
-5.964832 37.230438 68.440773 0.000978 0.000978 -0.999999 
5.564077 39.170300 68.440773 0.000978 0.000978 -0.999999 
24.390965 47.625805 68.440773 0.000978 0.000978 -0.999999 
14.424948 40.706562 68.440773 0.000978 0.000978 -0.999999 
-22.657745 40.343792 68.440773 0.000978 0.000978 -0.999999 
-15.070992 47.073380 68.440773 0.000978 0.000978 -0.999999 
-17.505550 35.713921 68.440773 0.000978 0.000978 -0.999999 
-5.404221 43.950924 68.440773 0.000978 0.000978 -0.999999 
17.085049 46.145569 68.440773 0.000978 0.000978 -0.999999 
-15.447020 43.828114 68.440773 0.000978 0.000978 -0.999999 
-9.610078 34.940430 68.440773 0.000978 0.000978 -0.999999 
14.962858 40.219662 68.440773 0.000978 0.000978 -0.999999 
-15.040730 46.633789 68.440773 0.000978 0.000978 -0.999999 
-10.265705 34.715614 68.440773 0.000978 0.000978 -0.999999 
-15.456186 38.317833 68.440773 0.000978 0.000978 -0.999999 
-0.992277 40.796692 68.440773 0.000978 0.000978 -0.999999 
-0.187696 44.806839 68.440773 0.000978 0.000978 -0.999999 
-12.986462 45.786911 68.440773 0.000978 0.000978 -0.999999 
4.192442 46.378021 68.440773 0.000978 0.000978 -0.999999 
1.912014 46.500320 68.440773 0.000978 0.000978 -0.999999 
-26.522919 40.042446 68.440773 0.000978 0.000978 -0.999999 
4.781090 38.733772 68.440773 0.000978 0.000978 -0.999999 
12.517429 39.382881 68.440773 0.000978 0.000978 -0.999999 
-3.680696 34.761608 68.440773 0.000978 0.000978 -0.999999 
12.022532 44.304535 68.440773 0.000978 0.000978 -0.999999 
-13.558393 32.161644 68.440773 0.000978 0.000978 -0.999999 
-20.631098 33.162056 68.440773 0.000978 0.000978 -0.999999 
7.324959 44.714535 68.440773 0.000978 0.000978 -0.999999 
-4.174238 37.176086 68.440773 0.000978 0.000978 -0.999999 
18.823193 42.324356 68.440773 0.000978 0.000978 -0.999999 
2.049835 48.157333 68.440773 0.000978 0.000978 -0.999999 
3.263986 37.320091 68.440773 0.000978 0.000978 -0.999999 
-12.776001 47.411980 68.440773 0.000978 0.000978 -0.999999 
17.874557 48.422733 68.440773 0.000978 0.000978 -0.999999 
3.561756 46.311905 68.440773 0.000978 0.000978 -0.999999 
-2.684591 41.899670 68.440773 0.000978 0.000978 -0.999999 
3.646816 45.699917 68.440773 0.000978 0.000978 -0.999999 
-26.253195 41.437759 68.440773 0.000978 0.000978 -0.999999 
10.357388 38.918812 68.440773 0.000978 0.000978 -0.999999 
-19.386339 32.055466 68.440773 0.000978 0.000978 -0.999999 
12.398043 40.662491 68.440773 0.000978 0.000978 -0.999999 
-24.265701 45.726276 68.440773 0.000978 0.000978 -0.999999 
-4.614147 46.592953 68.440773 0.000978 0.000978 -0.999999 
-8.945435 44.783562 68.440773 0.000978 0.000978 -0.999999 
-15.320053 39.496208 68.440773 0.000978 0.000978 -0.999999 
15.277815 45.929653 68.440773 0.000978 0.000978 -0.999999 
10.864765 39.658859 68.440773 0.000978 0.000978 -0.999999 
3.918543 37.762707 68.440773 0.000978 0.000978 -0.999999 
-20.090176 46.463593 68.440773 0.000978 0.000978 -0.999999 
-18.549187 30.621967 68.440773 0.000978 0.000978 -0.999999 
21.920082 47.176483 68.440773 0.000978 0.000978 -0.999999 
-14.478712 39.318092 68.440773 0.000978 0.000978 -0.999999 
0.865309 41.284805 68.440773 0.000978 0.000978 -0.999999 
-17.241766 34.070843 68.440773 0.000978 0.000978 -0.999999 
-18.372375 46.247009 68.440773 0.000978 0.000978 -0.999999 
22.929638 44.584808 68.440773 0.000978 0.000978 -0.999999 
-5.206177 34.878059 68.440773 0.000978 0.000978 -0.999999 
-24.599039 36.972412 68.440773 0.000978 0.000978 -0.999999 
-16.078945 39.639824 68.440773 0.000978 0.000978 -0.999999 
-10.254129 41.419670 68.440773 0.000978 0.000978 -0.999999 
-11.531555 46.626545 68.440773 0.000978 0.000978 -0.999999 
-16.472321 34.459969 68.440773 0.000978 0.000978 -0.999999 
-23.267878 38.790436 68.440773 0.000978 0.000978 -0.999999 
-12.294160 31.941732 68.440773 0.000978 0.000978 -0.999999 
-16.488937 31.790499 68.440773 0.000978 0.000978 -0.999999 
-5.166981 48.324444 68.440773 0.000978 0.000978 -0.999999 
7.040317 37.638863 68.440773 0.000978 0.000978 -0.999999 
-18.060265 30.811020 68.440773 0.000978 0.000978 -0.999999 
