ply
format ascii 1.0
comment Created by CloudCompare v2.12.0 (Kyiv)
comment Created 2023-02-04T20:21:00
obj_info Generated by CloudCompare!
element vertex 799
property float x
property float y
property float z
property float nx
property float ny
property float nz
end_header
50.834690 -41.445084 68.709274 0.671347 -0.070744 -0.737759 
50.232918 -44.428642 68.992722 0.813279 -0.364464 -0.453590 
-24.144541 -50.370171 69.374527 0.001041 -0.997849 -0.065552 
-25.695885 -50.295414 69.062691 0.001278 -0.924094 -0.382163 
13.180958 -49.542271 68.462288 0.001125 -0.165311 -0.986241 
-38.738678 -49.763500 68.529053 0.001282 -0.393609 -0.919277 
-48.672619 10.759895 69.230797 -0.977134 0.001162 -0.212622 
-48.581371 -7.664293 68.977196 -0.885003 0.001319 -0.465583 
-48.553066 16.409355 68.923546 -0.854638 0.001342 -0.519223 
-48.431248 3.298470 68.764786 -0.734219 0.001383 -0.678911 
-48.288071 14.929047 68.642128 -0.592312 0.001368 -0.805708 
-48.193779 -27.920847 68.572067 -0.493986 0.001331 -0.869469 
-47.900089 -4.903355 68.467087 -0.201881 0.001154 -0.979409 
51.299740 -28.969271 70.259605 0.999999 0.000978 0.000978 
51.299740 -0.399124 70.020447 0.999999 0.000978 0.000978 
51.299740 36.949528 70.313637 0.999999 0.000978 0.000978 
51.299740 32.766460 71.437729 0.999999 0.000978 0.000978 
50.376614 43.615303 71.313240 0.915238 0.402911 0.001287 
50.531746 43.240784 69.708321 0.930643 0.365926 0.001266 
49.612534 45.073929 70.604393 0.835989 0.548745 0.001355 
34.641689 49.621109 71.159294 0.000978 0.999999 0.000978 
2.775066 49.621109 70.117088 0.000978 0.999999 0.000978 
-33.648914 49.621109 69.614441 0.000978 0.999999 0.000978 
-30.519966 49.621109 70.920052 0.000978 0.999999 0.000978 
-24.608881 49.621109 70.783211 0.000978 0.999999 0.000978 
-40.619640 -35.490623 68.440773 0.000978 0.000978 -0.999999 
-32.920616 -25.811470 68.440773 0.000978 0.000978 -0.999999 
-30.341089 -25.237661 68.440773 0.000978 0.000978 -0.999999 
-24.149269 -27.560619 68.440773 0.000978 0.000978 -0.999999 
-20.964781 -29.078787 68.440773 0.000978 0.000978 -0.999999 
-24.463512 -34.656170 68.440773 0.000978 0.000978 -0.999999 
-29.995438 -39.298176 68.440773 0.000978 0.000978 -0.999999 
-26.428881 -36.582603 68.440773 0.000978 0.000978 -0.999999 
-42.144447 -48.087921 68.440773 0.000978 0.000978 -0.999999 
-46.193233 -44.135532 68.440773 0.000978 0.000978 -0.999999 
-32.893806 -34.129944 68.440773 0.000978 0.000978 -0.999999 
-35.216164 -35.861267 68.440773 0.000978 0.000978 -0.999999 
-44.140682 39.774914 68.440773 0.000978 0.000978 -0.999999 
-40.056587 33.821724 68.440773 0.000978 0.000978 -0.999999 
-33.798302 28.600971 68.440773 0.000978 0.000978 -0.999999 
-34.752266 29.286322 68.440773 0.000978 0.000978 -0.999999 
-26.179050 29.091297 68.440773 0.000978 0.000978 -0.999999 
-23.176361 32.792004 68.440773 0.000978 0.000978 -0.999999 
-36.236095 42.593079 68.440773 0.000978 0.000978 -0.999999 
-32.758060 42.519684 68.440773 0.000978 0.000978 -0.999999 
-38.411690 35.860455 68.440773 0.000978 0.000978 -0.999999 
-37.101566 36.459000 68.440773 0.000978 0.000978 -0.999999 
-30.459351 34.034958 68.440773 0.000978 0.000978 -0.999999 
-42.752720 45.213814 68.440773 0.000978 0.000978 -0.999999 
-46.338875 43.157055 68.440773 0.000978 0.000978 -0.999999 
37.606682 -37.549973 68.440773 0.000978 0.000978 -0.999999 
34.685871 -34.246674 68.440773 0.000978 0.000978 -0.999999 
22.559074 -31.478594 68.440773 0.000978 0.000978 -0.999999 
36.130985 -42.273788 68.440773 0.000978 0.000978 -0.999999 
-4.245922 -38.302441 68.440773 0.000978 0.000978 -0.999999 
15.980903 -34.540112 68.440773 0.000978 0.000978 -0.999999 
17.346264 -43.357975 68.440773 0.000978 0.000978 -0.999999 
-16.276398 -48.025028 68.440773 0.000978 0.000978 -0.999999 
0.140219 -48.287491 68.440773 0.000978 0.000978 -0.999999 
26.251541 -47.824963 68.440773 0.000978 0.000978 -0.999999 
8.448967 -46.442963 68.440773 0.000978 0.000978 -0.999999 
7.770451 -39.143917 68.440773 0.000978 0.000978 -0.999999 
29.316698 -44.571251 68.440773 0.000978 0.000978 -0.999999 
18.148600 -47.360378 68.440773 0.000978 0.000978 -0.999999 
5.838861 -44.738132 68.440773 0.000978 0.000978 -0.999999 
7.547720 -49.216026 68.440773 0.000978 0.000978 -0.999999 
24.256662 -40.805290 68.440773 0.000978 0.000978 -0.999999 
-0.538704 -37.554153 68.440773 0.000978 0.000978 -0.999999 
10.943485 -46.262886 68.440773 0.000978 0.000978 -0.999999 
6.712841 -48.046219 68.440773 0.000978 0.000978 -0.999999 
21.966095 -47.494373 68.440773 0.000978 0.000978 -0.999999 
-30.340485 -47.264381 68.440773 0.000978 0.000978 -0.999999 
14.801130 -43.898075 68.440773 0.000978 0.000978 -0.999999 
21.729233 -47.257568 68.440773 0.000978 0.000978 -0.999999 
28.013556 -44.586784 68.440773 0.000978 0.000978 -0.999999 
-7.805454 -47.516743 68.440773 0.000978 0.000978 -0.999999 
-2.375454 -38.482304 68.440773 0.000978 0.000978 -0.999999 
29.109852 -48.858425 68.440773 0.000978 0.000978 -0.999999 
-30.914375 -47.709332 68.440773 0.000978 0.000978 -0.999999 
48.908226 -42.843319 68.440773 0.000978 0.000978 -0.999999 
48.921364 -42.071838 68.440773 0.000978 0.000978 -0.999999 
31.910036 -20.773142 68.440773 0.000978 0.000978 -0.999999 
47.777950 -38.072182 68.440773 0.000978 0.000978 -0.999999 
43.005669 -35.235237 68.440773 0.000978 0.000978 -0.999999 
31.376020 18.047573 68.440773 0.000978 0.000978 -0.999999 
41.145271 -19.228138 68.440773 0.000978 0.000978 -0.999999 
42.839161 -19.683792 68.440773 0.000978 0.000978 -0.999999 
38.418087 -15.385712 68.440773 0.000978 0.000978 -0.999999 
31.885273 -18.386055 68.440773 0.000978 0.000978 -0.999999 
37.408638 -5.474457 68.440773 0.000978 0.000978 -0.999999 
34.879856 -8.259668 68.440773 0.000978 0.000978 -0.999999 
39.582893 -8.641993 68.440773 0.000978 0.000978 -0.999999 
33.438396 -20.683245 68.440773 0.000978 0.000978 -0.999999 
32.766010 -10.291370 68.440773 0.000978 0.000978 -0.999999 
38.759850 -6.910255 68.440773 0.000978 0.000978 -0.999999 
34.113239 -15.582532 68.440773 0.000978 0.000978 -0.999999 
43.554382 -0.402449 68.440773 0.000978 0.000978 -0.999999 
37.471954 5.796152 68.440773 0.000978 0.000978 -0.999999 
41.302483 0.555964 68.440773 0.000978 0.000978 -0.999999 
35.240334 12.900799 68.440773 0.000978 0.000978 -0.999999 
48.617828 12.888496 68.440773 0.000978 0.000978 -0.999999 
40.387093 -7.932131 68.440773 0.000978 0.000978 -0.999999 
46.000973 -8.870953 68.440773 0.000978 0.000978 -0.999999 
45.980019 -23.493687 68.440773 0.000978 0.000978 -0.999999 
43.058590 5.776770 68.440773 0.000978 0.000978 -0.999999 
38.272499 20.680481 68.440773 0.000978 0.000978 -0.999999 
47.571507 -27.286873 68.440773 0.000978 0.000978 -0.999999 
43.365314 -8.886168 68.440773 0.000978 0.000978 -0.999999 
47.843384 30.253422 68.440773 0.000978 0.000978 -0.999999 
34.957104 10.124681 68.440773 0.000978 0.000978 -0.999999 
39.219498 1.836288 68.440773 0.000978 0.000978 -0.999999 
48.288506 4.255386 68.440773 0.000978 0.000978 -0.999999 
47.254787 -18.560642 68.440773 0.000978 0.000978 -0.999999 
41.074787 20.797409 68.440773 0.000978 0.000978 -0.999999 
44.359371 12.252598 68.440773 0.000978 0.000978 -0.999999 
46.213860 15.100965 68.440773 0.000978 0.000978 -0.999999 
48.712639 5.067707 68.440773 0.000978 0.000978 -0.999999 
46.801422 29.943773 68.440773 0.000978 0.000978 -0.999999 
46.483093 18.417929 68.440773 0.000978 0.000978 -0.999999 
49.185928 1.198662 68.440773 0.000978 0.000978 -0.999999 
49.577995 30.098911 68.440773 0.000978 0.000978 -0.999999 
45.343224 35.371696 68.440773 0.000978 0.000978 -0.999999 
41.759010 33.970230 68.440773 0.000978 0.000978 -0.999999 
35.582390 -32.088966 68.440773 0.000978 0.000978 -0.999999 
35.867397 -33.074051 68.440773 0.000978 0.000978 -0.999999 
36.938004 -35.380463 68.440773 0.000978 0.000978 -0.999999 
30.284489 33.807182 68.440773 0.000978 0.000978 -0.999999 
36.221214 39.530453 68.440773 0.000978 0.000978 -0.999999 
31.393013 38.456322 68.440773 0.000978 0.000978 -0.999999 
31.028006 39.176533 68.440773 0.000978 0.000978 -0.999999 
26.526054 42.937660 68.440773 0.000978 0.000978 -0.999999 
35.486492 44.022781 68.440773 0.000978 0.000978 -0.999999 
1.677738 33.046638 68.440773 0.000978 0.000978 -0.999999 
29.720993 43.289566 68.440773 0.000978 0.000978 -0.999999 
22.350908 35.864254 68.440773 0.000978 0.000978 -0.999999 
21.701601 34.639149 68.440773 0.000978 0.000978 -0.999999 
30.916550 41.271420 68.440773 0.000978 0.000978 -0.999999 
24.150242 41.422195 68.440773 0.000978 0.000978 -0.999999 
5.059492 31.195097 68.440773 0.000978 0.000978 -0.999999 
0.660671 31.991661 68.440773 0.000978 0.000978 -0.999999 
5.620556 36.334270 68.440773 0.000978 0.000978 -0.999999 
21.686207 41.044228 68.440773 0.000978 0.000978 -0.999999 
-11.760856 33.584175 68.440773 0.000978 0.000978 -0.999999 
-22.957563 44.979523 68.440773 0.000978 0.000978 -0.999999 
-3.649465 38.333675 68.440773 0.000978 0.000978 -0.999999 
-23.342655 46.702999 68.440773 0.000978 0.000978 -0.999999 
23.146885 46.419220 68.440773 0.000978 0.000978 -0.999999 
9.310575 41.659317 68.440773 0.000978 0.000978 -0.999999 
-14.323479 45.662121 68.440773 0.000978 0.000978 -0.999999 
-26.216976 42.189938 68.440773 0.000978 0.000978 -0.999999 
17.473288 42.511719 68.440773 0.000978 0.000978 -0.999999 
-18.857384 39.953644 68.440773 0.000978 0.000978 -0.999999 
5.562349 38.445419 68.440773 0.000978 0.000978 -0.999999 
10.841342 41.187309 68.440773 0.000978 0.000978 -0.999999 
2.863615 45.659073 68.440773 0.000978 0.000978 -0.999999 
20.949219 46.091267 68.440773 0.000978 0.000978 -0.999999 
-12.442921 38.813286 68.440773 0.000978 0.000978 -0.999999 
-15.729576 38.285408 68.440773 0.000978 0.000978 -0.999999 
-6.524002 47.157150 68.440773 0.000978 0.000978 -0.999999 
-0.076309 40.053459 68.440773 0.000978 0.000978 -0.999999 
-15.516254 43.634987 68.440773 0.000978 0.000978 -0.999999 
-2.439993 42.101440 68.440773 0.000978 0.000978 -0.999999 
-1.444641 39.485275 68.440773 0.000978 0.000978 -0.999999 
-9.960339 37.767635 68.440773 0.000978 0.000978 -0.999999 
15.329275 43.834972 68.440773 0.000978 0.000978 -0.999999 
0.879261 39.192554 68.440773 0.000978 0.000978 -0.999999 
35.918007 35.965908 68.440773 0.000978 0.000978 -0.999999 
38.432343 35.766430 68.440773 0.000978 0.000978 -0.999999 
38.051956 34.725208 68.440773 0.000978 0.000978 -0.999999 
35.812840 28.676771 68.440773 0.000978 0.000978 -0.999999 
40.515396 45.727982 68.440773 0.000978 0.000978 -0.999999 
-32.750488 -5.308254 68.440773 0.000978 0.000978 -0.999999 
-28.735857 -2.887747 68.440773 0.000978 0.000978 -0.999999 
-34.413532 -19.706667 68.440773 0.000978 0.000978 -0.999999 
-29.246553 -11.967598 68.440773 0.000978 0.000978 -0.999999 
-32.789062 -15.956470 68.440773 0.000978 0.000978 -0.999999 
-29.561167 -4.437310 68.440773 0.000978 0.000978 -0.999999 
-35.828758 -13.966987 68.440773 0.000978 0.000978 -0.999999 
-36.738876 -8.154383 68.440773 0.000978 0.000978 -0.999999 
-28.741461 -10.705037 68.440773 0.000978 0.000978 -0.999999 
-36.644424 -14.413677 68.440773 0.000978 0.000978 -0.999999 
-37.165459 -10.547421 68.440773 0.000978 0.000978 -0.999999 
-32.954945 12.764116 68.440773 0.000978 0.000978 -0.999999 
-42.656780 -14.884003 68.440773 0.000978 0.000978 -0.999999 
-37.914131 -9.281668 68.440773 0.000978 0.000978 -0.999999 
-31.559151 18.957436 68.440773 0.000978 0.000978 -0.999999 
-45.783005 0.311772 68.440773 0.000978 0.000978 -0.999999 
-43.628559 -13.419374 68.440773 0.000978 0.000978 -0.999999 
-42.570171 6.069018 68.440773 0.000978 0.000978 -0.999999 
-46.147697 12.212905 68.440773 0.000978 0.000978 -0.999999 
-36.947765 21.501888 68.440773 0.000978 0.000978 -0.999999 
-42.072056 -0.567037 68.440773 0.000978 0.000978 -0.999999 
-45.249565 -29.630018 68.440773 0.000978 0.000978 -0.999999 
-37.381886 2.343273 68.440773 0.000978 0.000978 -0.999999 
-31.372309 14.694822 68.440773 0.000978 0.000978 -0.999999 
-45.619415 34.307693 68.440773 0.000978 0.000978 -0.999999 
-44.722572 -29.574411 68.440773 0.000978 0.000978 -0.999999 
-46.653671 -29.855074 68.440773 0.000978 0.000978 -0.999999 
-37.644047 -0.200716 68.440773 0.000978 0.000978 -0.999999 
-46.999660 -2.292467 68.440773 0.000978 0.000978 -0.999999 
-34.626892 6.834018 68.440773 0.000978 0.000978 -0.999999 
-33.059811 12.927425 68.440773 0.000978 0.000978 -0.999999 
-39.784367 12.894468 68.440773 0.000978 0.000978 -0.999999 
-32.696709 19.498171 68.440773 0.000978 0.000978 -0.999999 
-31.103016 19.935242 68.440773 0.000978 0.000978 -0.999999 
-42.132767 -14.727510 68.440773 0.000978 0.000978 -0.999999 
27.202164 25.077211 68.440773 0.000978 0.000978 -0.999999 
25.164248 23.904270 68.440773 0.000978 0.000978 -0.999999 
10.333609 11.563971 68.440773 0.000978 0.000978 -0.999999 
23.582455 19.005451 68.440773 0.000978 0.000978 -0.999999 
15.584370 17.039021 68.440773 0.000978 0.000978 -0.999999 
17.124584 12.864280 68.440773 0.000978 0.000978 -0.999999 
7.473370 8.129157 68.440773 0.000978 0.000978 -0.999999 
14.131063 12.094671 68.440773 0.000978 0.000978 -0.999999 
4.646563 -1.928096 68.440773 0.000978 0.000978 -0.999999 
21.551189 -17.154776 68.440773 0.000978 0.000978 -0.999999 
15.392076 -12.600427 68.440773 0.000978 0.000978 -0.999999 
6.959110 -5.509397 68.440773 0.000978 0.000978 -0.999999 
12.972829 -16.923246 68.440773 0.000978 0.000978 -0.999999 
13.347775 -13.445913 68.440773 0.000978 0.000978 -0.999999 
21.757383 -22.083290 68.440773 0.000978 0.000978 -0.999999 
24.474062 -24.433975 68.440773 0.000978 0.000978 -0.999999 
27.678684 -25.597481 68.440773 0.000978 0.000978 -0.999999 
-19.645611 -23.786753 68.440773 0.000978 0.000978 -0.999999 
-19.770639 -24.763870 68.440773 0.000978 0.000978 -0.999999 
-4.265115 -10.506690 68.440773 0.000978 0.000978 -0.999999 
-7.314583 -5.852580 68.440773 0.000978 0.000978 -0.999999 
-3.088229 -5.647295 68.440773 0.000978 0.000978 -0.999999 
-5.121959 -5.802433 68.440773 0.000978 0.000978 -0.999999 
-2.852894 -2.991995 68.440773 0.000978 0.000978 -0.999999 
-16.432518 13.714824 68.440773 0.000978 0.000978 -0.999999 
-17.498785 13.989120 68.440773 0.000978 0.000978 -0.999999 
-2.259801 5.182142 68.440773 0.000978 0.000978 -0.999999 
-16.836653 20.770372 68.440773 0.000978 0.000978 -0.999999 
-13.827547 15.522059 68.440773 0.000978 0.000978 -0.999999 
-15.626515 20.019642 68.440773 0.000978 0.000978 -0.999999 
-19.881462 25.018003 68.440773 0.000978 0.000978 -0.999999 
3.532557 -34.242699 68.440773 0.000978 0.000978 -0.999999 
-1.755442 -31.114790 68.440773 0.000978 0.000978 -0.999999 
-29.438694 -44.288296 68.440773 0.000978 0.000978 -0.999999 
15.967574 -31.667479 68.440773 0.000978 0.000978 -0.999999 
-7.274606 -34.492085 68.440773 0.000978 0.000978 -0.999999 
-12.982331 -31.197069 68.440773 0.000978 0.000978 -0.999999 
-15.136024 -36.633678 68.440773 0.000978 0.000978 -0.999999 
-5.923427 -31.334589 68.440773 0.000978 0.000978 -0.999999 
-22.897125 -36.099705 68.440773 0.000978 0.000978 -0.999999 
-13.704163 -34.776993 68.440773 0.000978 0.000978 -0.999999 
-36.926826 -48.410713 68.440773 0.000978 0.000978 -0.999999 
9.858955 -32.165890 68.440773 0.000978 0.000978 -0.999999 
31.299740 -3.920177 71.177948 -0.999999 0.000978 0.000978 
31.299740 -4.941594 68.895386 -0.999999 0.000978 0.000978 
31.299740 7.765319 69.853722 -0.999999 0.000978 0.000978 
11.840636 -5.919787 70.591919 0.707106 0.707106 0.001384 
15.169258 -9.248409 69.421722 0.707106 0.707106 0.001384 
22.623362 -16.702513 69.533836 0.707106 0.707106 0.001384 
7.457691 -1.115824 70.254387 0.954848 0.297091 0.001223 
21.925356 15.246725 69.394226 0.707106 -0.707106 0.001384 
19.502983 12.824355 68.995132 0.707106 -0.707106 0.001384 
14.386169 7.707539 69.345253 0.707106 -0.707106 0.001384 
-28.700260 9.748408 69.730446 0.999999 0.000978 0.000978 
-28.700260 12.827579 69.413147 0.999999 0.000978 0.000978 
-28.700260 -18.571907 70.551270 0.999999 0.000978 0.000978 
-28.700260 -18.881273 70.103081 0.999999 0.000978 0.000978 
-25.044613 20.789722 68.696358 -0.465583 -0.885003 0.001319 
-26.003166 21.059628 68.726517 -0.078950 -0.996878 0.001053 
-27.104773 20.893745 68.723282 0.365926 -0.930643 0.001266 
-16.498833 12.419683 71.266655 -0.707106 -0.707106 0.001384 
-7.486593 3.407444 69.674522 -0.707106 -0.707106 0.001384 
-15.001594 10.922443 69.005379 -0.707106 -0.707106 0.001384 
-5.461399 -2.138019 70.295998 -0.709868 0.704333 0.001384 
-21.655844 -18.334473 70.782181 -0.707106 0.707106 0.001384 
-7.026746 -3.705375 68.794678 -0.707106 0.707106 0.001384 
-6.374151 -13.052781 71.207352 0.707106 -0.707106 0.001384 
-9.902182 -16.580811 69.116028 0.707106 -0.707106 0.001384 
-18.710896 -25.389526 69.645088 0.707106 -0.707106 0.001384 
18.897625 -22.976776 70.573273 -0.707106 -0.707106 0.001384 
13.913348 -17.992496 71.210617 -0.707106 -0.707106 0.001384 
3.727386 -7.806534 69.248589 -0.707106 -0.707106 0.001384 
8.639075 -12.718225 68.961311 -0.707106 -0.707106 0.001384 
-4.756590 -30.378889 69.465698 0.000978 0.999999 0.000978 
16.281479 -30.378889 70.263092 0.000978 0.999999 0.000978 
0.813196 -30.378889 69.792549 0.000978 0.999999 0.000978 
29.688433 31.508934 69.193939 0.649768 -0.760132 0.001380 
33.666565 28.858206 69.428795 -0.951836 0.306607 0.001231 
-1.145130 -0.797644 70.433472 0.985368 0.170436 0.001129 
3.455850 0.882778 69.328613 -0.863341 -0.504619 0.001339 
-0.384207 -2.210974 68.873947 0.676037 0.736866 0.001382 
32.172047 -28.057381 71.406532 -0.351537 -0.936173 0.001260 
17.976475 29.621111 69.494164 0.000978 -0.999999 0.000978 
16.301838 29.621111 68.808105 0.000978 -0.999999 0.000978 
-8.580355 29.621111 69.114609 0.000978 -0.999999 0.000978 
10.115223 29.621111 68.780197 0.000978 -0.999999 0.000978 
22.683704 26.509644 68.803993 -0.969369 0.245605 0.001186 
5.893414 9.214786 70.411797 -0.707106 0.707106 0.001384 
20.777370 24.098740 70.704536 -0.707106 0.707106 0.001384 
2.328107 5.899777 69.296349 -0.415362 0.909655 0.001294 
-14.920591 20.841440 71.079987 0.707106 0.707106 0.001384 
-18.737879 24.658728 69.322380 0.707106 0.707106 0.001384 
-6.506045 12.426894 69.491455 0.707106 0.707106 0.001384 
-16.593494 22.514343 68.511368 0.707106 0.707106 0.001384 
-18.392355 29.502548 71.162483 0.291939 -0.956436 0.001222 
-19.157797 29.099659 68.739487 0.603278 -0.797530 0.001368 
-20.079397 27.768503 68.760483 0.965696 -0.259673 0.001197 
-19.914532 26.075697 68.645248 0.906778 0.421606 0.001297 
-28.984217 27.158495 71.268669 0.115898 0.993261 0.001083 
-30.008169 27.500483 70.600487 0.525521 0.850780 0.001344 
-28.117216 -27.955648 69.510117 -0.234487 -0.972119 0.001178 
-27.873451 -28.038534 70.088066 -0.333408 -0.942782 0.001249 
-41.900211 49.026970 71.240715 -0.323658 0.946173 0.001240 
-45.383007 46.990147 70.237289 -0.671779 0.740750 0.001379 
-48.700260 10.143383 69.833160 -0.999999 0.000978 0.000978 
-48.700260 -8.519382 69.605415 -0.999999 0.000978 0.000978 
-48.700260 -25.361534 69.554512 -0.999999 0.000978 0.000978 
-48.700260 -32.486305 70.509262 -0.999999 0.000978 0.000978 
-48.700260 -36.407547 70.676445 -0.999999 0.000978 0.000978 
-46.576443 -46.400715 71.131386 -0.794201 -0.607653 0.001372 
-41.417351 -49.984756 70.908119 -0.273924 -0.961751 0.001207 
-26.189367 -50.378891 70.096786 0.000978 -0.999999 0.000978 
-9.938437 -50.378891 70.166580 0.000978 -0.999999 0.000978 
29.656803 -50.378891 71.317711 0.000978 -0.999999 0.000978 
9.737175 -50.378891 71.116364 0.000978 -0.999999 0.000978 
-43.629913 -40.751038 71.440773 0.000978 0.000978 0.999999 
-40.393372 -33.256042 71.440773 0.000978 0.000978 0.999999 
-37.902382 -30.261015 71.440773 0.000978 0.000978 0.999999 
-30.629036 -27.166548 71.440773 0.000978 0.000978 0.999999 
-34.938354 -31.379501 71.440773 0.000978 0.000978 0.999999 
-28.063499 -27.236691 71.440773 0.000978 0.000978 0.999999 
-24.535194 -25.010792 71.440773 0.000978 0.000978 0.999999 
-23.063669 -28.630213 71.440773 0.000978 0.000978 0.999999 
-30.079357 -36.546375 71.440773 0.000978 0.000978 0.999999 
-32.179096 -39.947132 71.440773 0.000978 0.000978 0.999999 
-34.274487 -35.800682 71.440773 0.000978 0.000978 0.999999 
-32.650955 -36.216839 71.440773 0.000978 0.000978 0.999999 
-43.334743 -46.251247 71.440773 0.000978 0.000978 0.999999 
-43.801460 -43.879662 71.440773 0.000978 0.000978 0.999999 
-46.206238 -41.340939 71.440773 0.000978 0.000978 0.999999 
-43.471157 43.831146 71.440773 0.000978 0.000978 0.999999 
-41.091518 48.219818 71.440773 0.000978 0.000978 0.999999 
-39.636402 45.038490 71.440773 0.000978 0.000978 0.999999 
-39.225349 48.796070 71.440773 0.000978 0.000978 0.999999 
-29.772171 40.166023 71.440773 0.000978 0.000978 0.999999 
-21.760307 33.455357 71.440773 0.000978 0.000978 0.999999 
-29.935730 36.031044 71.440773 0.000978 0.000978 0.999999 
-25.215666 28.770630 71.440773 0.000978 0.000978 0.999999 
-35.298855 31.184507 71.440773 0.000978 0.000978 0.999999 
-42.552780 34.952202 71.440773 0.000978 0.000978 0.999999 
-32.015034 23.321367 71.440773 0.000978 0.000978 0.999999 
27.660215 -32.294888 71.440773 0.000978 0.000978 0.999999 
24.406591 -33.613365 71.440773 0.000978 0.000978 0.999999 
27.888641 -37.308529 71.440773 0.000978 0.000978 0.999999 
34.807899 -47.210739 71.440773 0.000978 0.000978 0.999999 
2.823212 -34.194443 71.440773 0.000978 0.000978 0.999999 
11.647015 -35.991665 71.440773 0.000978 0.000978 0.999999 
34.544369 -46.979385 71.440773 0.000978 0.000978 0.999999 
26.577547 -40.359554 71.440773 0.000978 0.000978 0.999999 
14.301577 -35.862862 71.440773 0.000978 0.000978 0.999999 
0.038918 -34.760159 71.440773 0.000978 0.000978 0.999999 
19.770515 -39.888435 71.440773 0.000978 0.000978 0.999999 
21.066822 -34.670628 71.440773 0.000978 0.000978 0.999999 
33.194149 -45.623260 71.440773 0.000978 0.000978 0.999999 
0.132851 -32.187466 71.440773 0.000978 0.000978 0.999999 
31.286491 -41.732647 71.440773 0.000978 0.000978 0.999999 
3.056164 -32.000347 71.440773 0.000978 0.000978 0.999999 
2.178295 -50.002712 71.440773 0.000978 0.000978 0.999999 
-4.185017 -35.499199 71.440773 0.000978 0.000978 0.999999 
20.032043 -45.830051 71.440773 0.000978 0.000978 0.999999 
-19.602440 -43.565746 71.440773 0.000978 0.000978 0.999999 
21.655169 -47.331005 71.440773 0.000978 0.000978 0.999999 
-14.771660 -50.234783 71.440773 0.000978 0.000978 0.999999 
0.996052 -37.033680 71.440773 0.000978 0.000978 0.999999 
-12.634109 -49.551163 71.440773 0.000978 0.000978 0.999999 
-22.673191 -35.745361 71.440773 0.000978 0.000978 0.999999 
-13.654625 -45.534111 71.440773 0.000978 0.000978 0.999999 
-4.540176 -45.770515 71.440773 0.000978 0.000978 0.999999 
-17.614040 -37.235004 71.440773 0.000978 0.000978 0.999999 
20.281435 -45.202877 71.440773 0.000978 0.000978 0.999999 
-15.400278 -42.889442 71.440773 0.000978 0.000978 0.999999 
-2.533604 -41.545601 71.440773 0.000978 0.000978 0.999999 
3.322163 -50.019146 71.440773 0.000978 0.000978 0.999999 
-32.622471 -49.318577 71.440773 0.000978 0.000978 0.999999 
29.211084 -46.595020 71.440773 0.000978 0.000978 0.999999 
12.905373 -45.079037 71.440773 0.000978 0.000978 0.999999 
-17.140387 -39.578835 71.440773 0.000978 0.000978 0.999999 
-6.930119 -39.879646 71.440773 0.000978 0.000978 0.999999 
7.412227 -42.863781 71.440773 0.000978 0.000978 0.999999 
25.836555 -46.820068 71.440773 0.000978 0.000978 0.999999 
-29.407345 -49.618317 71.440773 0.000978 0.000978 0.999999 
-15.589831 -31.676285 71.440773 0.000978 0.000978 0.999999 
-18.845184 -46.487278 71.440773 0.000978 0.000978 0.999999 
35.262096 -29.100832 71.440773 0.000978 0.000978 0.999999 
35.925182 -27.072441 71.440773 0.000978 0.000978 0.999999 
48.390259 -39.333061 71.440773 0.000978 0.000978 0.999999 
31.913446 10.203592 71.440773 0.000978 0.000978 0.999999 
34.940205 -7.620665 71.440773 0.000978 0.000978 0.999999 
38.653976 -4.043711 71.440773 0.000978 0.000978 0.999999 
33.959427 -15.671177 71.440773 0.000978 0.000978 0.999999 
33.674564 -13.817590 71.440773 0.000978 0.000978 0.999999 
44.078812 -27.999340 71.440773 0.000978 0.000978 0.999999 
40.273449 -24.435207 71.440773 0.000978 0.000978 0.999999 
37.594501 -5.487261 71.440773 0.000978 0.000978 0.999999 
47.799522 -31.277872 71.440773 0.000978 0.000978 0.999999 
47.631912 -30.026754 71.440773 0.000978 0.000978 0.999999 
37.827251 -9.129562 71.440773 0.000978 0.000978 0.999999 
33.487774 2.545679 71.440773 0.000978 0.000978 0.999999 
51.013889 -5.710941 71.440773 0.000978 0.000978 0.999999 
43.005444 0.626324 71.440773 0.000978 0.000978 0.999999 
41.042961 -0.692637 71.440773 0.000978 0.000978 0.999999 
47.396915 -14.611423 71.440773 0.000978 0.000978 0.999999 
51.052910 29.378906 71.440773 0.000978 0.000978 0.999999 
49.523907 19.951591 71.440773 0.000978 0.000978 0.999999 
45.098404 3.343245 71.440773 0.000978 0.000978 0.999999 
37.774120 8.682837 71.440773 0.000978 0.000978 0.999999 
42.679745 -6.746591 71.440773 0.000978 0.000978 0.999999 
48.295952 22.397268 71.440773 0.000978 0.000978 0.999999 
39.383110 19.077682 71.440773 0.000978 0.000978 0.999999 
40.510590 14.013464 71.440773 0.000978 0.000978 0.999999 
39.321686 7.554670 71.440773 0.000978 0.000978 0.999999 
47.503216 -15.370748 71.440773 0.000978 0.000978 0.999999 
45.098648 -14.095144 71.440773 0.000978 0.000978 0.999999 
51.194996 -8.725272 71.440773 0.000978 0.000978 0.999999 
38.777676 11.857910 71.440773 0.000978 0.000978 0.999999 
49.334438 -0.225317 71.440773 0.000978 0.000978 0.999999 
36.602352 11.279867 71.440773 0.000978 0.000978 0.999999 
48.339962 -29.109610 71.440773 0.000978 0.000978 0.999999 
47.746033 -29.525553 71.440773 0.000978 0.000978 0.999999 
47.997433 -22.589781 71.440773 0.000978 0.000978 0.999999 
43.576702 -15.214529 71.440773 0.000978 0.000978 0.999999 
40.923698 15.405707 71.440773 0.000978 0.000978 0.999999 
42.372040 28.984085 71.440773 0.000978 0.000978 0.999999 
45.361729 -2.374961 71.440773 0.000978 0.000978 0.999999 
36.721943 25.575560 71.440773 0.000978 0.000978 0.999999 
50.974102 40.629322 71.440773 0.000978 0.000978 0.999999 
48.877666 42.249870 71.440773 0.000978 0.000978 0.999999 
47.078926 47.320919 71.440773 0.000978 0.000978 0.999999 
43.268513 46.758839 71.440773 0.000978 0.000978 0.999999 
26.815777 35.329967 71.440773 0.000978 0.000978 0.999999 
22.754845 31.757212 71.440773 0.000978 0.000978 0.999999 
35.645912 39.295647 71.440773 0.000978 0.000978 0.999999 
32.201145 35.976620 71.440773 0.000978 0.000978 0.999999 
24.908827 29.292463 71.440773 0.000978 0.000978 0.999999 
35.101582 28.760117 71.440773 0.000978 0.000978 0.999999 
47.332962 -39.824635 71.440773 0.000978 0.000978 0.999999 
47.318459 -44.571075 71.440773 0.000978 0.000978 0.999999 
43.998253 -48.502251 71.440773 0.000978 0.000978 0.999999 
43.448502 -49.687691 71.440773 0.000978 0.000978 0.999999 
34.408245 35.286629 71.440773 0.000978 0.000978 0.999999 
-8.222463 41.717831 71.440773 0.000978 0.000978 0.999999 
3.833195 35.841240 71.440773 0.000978 0.000978 0.999999 
-1.978148 39.751869 71.440773 0.000978 0.000978 0.999999 
-10.848126 45.938087 71.440773 0.000978 0.000978 0.999999 
7.262727 47.034142 71.440773 0.000978 0.000978 0.999999 
15.160598 38.285828 71.440773 0.000978 0.000978 0.999999 
26.061733 44.430908 71.440773 0.000978 0.000978 0.999999 
29.005569 45.558079 71.440773 0.000978 0.000978 0.999999 
30.109846 47.180294 71.440773 0.000978 0.000978 0.999999 
-16.533396 49.603519 71.440773 0.000978 0.000978 0.999999 
22.884911 42.101612 71.440773 0.000978 0.000978 0.999999 
38.385876 48.500965 71.440773 0.000978 0.000978 0.999999 
0.557591 37.790951 71.440773 0.000978 0.000978 0.999999 
-23.401241 45.324158 71.440773 0.000978 0.000978 0.999999 
-7.856114 49.310101 71.440773 0.000978 0.000978 0.999999 
-14.790023 47.400318 71.440773 0.000978 0.000978 0.999999 
9.025703 44.820606 71.440773 0.000978 0.000978 0.999999 
11.071213 37.680779 71.440773 0.000978 0.000978 0.999999 
9.372753 46.003136 71.440773 0.000978 0.000978 0.999999 
18.125553 43.441818 71.440773 0.000978 0.000978 0.999999 
0.853486 47.121426 71.440773 0.000978 0.000978 0.999999 
16.859135 49.195858 71.440773 0.000978 0.000978 0.999999 
-6.125820 39.746716 71.440773 0.000978 0.000978 0.999999 
-16.811762 49.401569 71.440773 0.000978 0.000978 0.999999 
27.071043 46.666576 71.440773 0.000978 0.000978 0.999999 
-25.912006 39.982212 71.440773 0.000978 0.000978 0.999999 
-7.353979 30.895166 71.440773 0.000978 0.000978 0.999999 
13.062798 29.729431 71.440773 0.000978 0.000978 0.999999 
-19.704681 32.787373 71.440773 0.000978 0.000978 0.999999 
-8.263357 33.907013 71.440773 0.000978 0.000978 0.999999 
-21.874716 41.548645 71.440773 0.000978 0.000978 0.999999 
-1.601660 36.119953 71.440773 0.000978 0.000978 0.999999 
-7.238091 31.602270 71.440773 0.000978 0.000978 0.999999 
-22.835640 42.700317 71.440773 0.000978 0.000978 0.999999 
-27.218082 45.593941 71.440773 0.000978 0.000978 0.999999 
-8.243305 38.797905 71.440773 0.000978 0.000978 0.999999 
-30.152903 45.805023 71.440773 0.000978 0.000978 0.999999 
-45.884663 0.537115 71.440773 0.000978 0.000978 0.999999 
-44.586895 28.983253 71.440773 0.000978 0.000978 0.999999 
-47.572021 -28.985453 71.440773 0.000978 0.000978 0.999999 
-41.558769 9.577520 71.440773 0.000978 0.000978 0.999999 
-40.898983 14.698942 71.440773 0.000978 0.000978 0.999999 
-46.416317 -21.795900 71.440773 0.000978 0.000978 0.999999 
-48.656906 -8.425604 71.440773 0.000978 0.000978 0.999999 
-39.712364 2.259802 71.440773 0.000978 0.000978 0.999999 
-39.691303 26.288746 71.440773 0.000978 0.000978 0.999999 
-36.297539 12.428265 71.440773 0.000978 0.000978 0.999999 
-44.486404 -7.545951 71.440773 0.000978 0.000978 0.999999 
-42.459255 -9.531073 71.440773 0.000978 0.000978 0.999999 
-40.758537 7.491294 71.440773 0.000978 0.000978 0.999999 
-31.602633 18.413834 71.440773 0.000978 0.000978 0.999999 
-46.621822 19.500605 71.440773 0.000978 0.000978 0.999999 
-38.947502 9.096737 71.440773 0.000978 0.000978 0.999999 
-38.431992 -4.653019 71.440773 0.000978 0.000978 0.999999 
-37.907059 -7.337944 71.440773 0.000978 0.000978 0.999999 
-35.681942 7.789662 71.440773 0.000978 0.000978 0.999999 
-35.990883 4.410431 71.440773 0.000978 0.000978 0.999999 
-47.740852 25.080460 71.440773 0.000978 0.000978 0.999999 
-36.577198 0.808702 71.440773 0.000978 0.000978 0.999999 
-44.187004 -26.949026 71.440773 0.000978 0.000978 0.999999 
-47.234062 -10.210284 71.440773 0.000978 0.000978 0.999999 
-47.320312 -12.843959 71.440773 0.000978 0.000978 0.999999 
-40.182304 26.099678 71.440773 0.000978 0.000978 0.999999 
-37.965298 -14.876103 71.440773 0.000978 0.000978 0.999999 
-31.080702 -11.449650 71.440773 0.000978 0.000978 0.999999 
-32.869080 -12.650582 71.440773 0.000978 0.000978 0.999999 
-31.277590 -0.957055 71.440773 0.000978 0.000978 0.999999 
-34.491096 -23.216803 71.440773 0.000978 0.000978 0.999999 
-36.838425 -8.530805 71.440773 0.000978 0.000978 0.999999 
-32.832340 -2.733990 71.440773 0.000978 0.000978 0.999999 
-37.988728 -28.551966 71.440773 0.000978 0.000978 0.999999 
-37.472786 -22.632772 71.440773 0.000978 0.000978 0.999999 
-29.631165 11.846914 71.440773 0.000978 0.000978 0.999999 
-36.505886 -19.569107 71.440773 0.000978 0.000978 0.999999 
-31.561190 -3.451783 71.440773 0.000978 0.000978 0.999999 
-19.661297 25.332884 71.440773 0.000978 0.000978 0.999999 
-12.964340 18.673412 71.440773 0.000978 0.000978 0.999999 
-20.362602 23.826015 71.440773 0.000978 0.000978 0.999999 
-11.883755 17.235378 71.440773 0.000978 0.000978 0.999999 
-7.560881 6.372287 71.440773 0.000978 0.000978 0.999999 
-10.623926 9.943130 71.440773 0.000978 0.000978 0.999999 
-5.823945 5.039556 71.440773 0.000978 0.000978 0.999999 
-1.175545 -5.431671 71.440773 0.000978 0.000978 0.999999 
-7.340502 -8.638008 71.440773 0.000978 0.000978 0.999999 
-17.551949 -14.797165 71.440773 0.000978 0.000978 0.999999 
-18.883139 -16.018059 71.440773 0.000978 0.000978 0.999999 
-11.483811 -17.272217 71.440773 0.000978 0.000978 0.999999 
-10.292775 -15.283390 71.440773 0.000978 0.000978 0.999999 
-9.709775 -14.701532 71.440773 0.000978 0.000978 0.999999 
20.734219 19.482952 71.440773 0.000978 0.000978 0.999999 
19.132519 17.239799 71.440773 0.000978 0.000978 0.999999 
22.491077 19.241390 71.440773 0.000978 0.000978 0.999999 
13.484002 9.861448 71.440773 0.000978 0.000978 0.999999 
15.096036 9.603012 71.440773 0.000978 0.000978 0.999999 
4.690793 5.879061 71.440773 0.000978 0.000978 0.999999 
4.695828 2.377764 71.440773 0.000978 0.000978 0.999999 
4.806932 0.818784 71.440773 0.000978 0.000978 0.999999 
26.025745 -25.417879 71.440773 0.000978 0.000978 0.999999 
13.978598 -12.157476 71.440773 0.000978 0.000978 0.999999 
5.866055 -4.761285 71.440773 0.000978 0.000978 0.999999 
9.083252 -7.059502 71.440773 0.000978 0.000978 0.999999 
16.237263 -17.971945 71.440773 0.000978 0.000978 0.999999 
22.054152 -23.134966 71.440773 0.000978 0.000978 0.999999 
13.981948 -14.128086 71.440773 0.000978 0.000978 0.999999 
-35.618168 -41.120659 98.640923 0.972654 -0.232258 0.001179 
-38.661732 -37.208874 95.123428 0.012883 0.999917 0.000991 
-38.771622 -37.213123 77.394806 -0.020974 0.999780 0.000999 
-38.123959 -37.278423 63.405575 0.183394 0.983039 0.001139 
-38.760887 -43.546047 57.750225 -0.018902 -0.999821 0.000995 
-36.401890 -42.563931 56.549164 0.723512 -0.690311 0.001383 
-36.708630 -42.447163 68.294891 0.301404 -0.402382 0.864433 
-35.826118 -41.154259 78.500923 0.466862 -0.188227 0.864066 
-41.628574 -41.322903 89.350853 -0.490388 -0.100920 0.865641 
-36.652664 -38.348064 101.626068 0.397545 0.308519 0.864161 
-40.069077 -37.552216 102.995956 -0.166117 0.471890 0.865867 
-41.766052 -39.844753 103.203522 -0.481083 0.143889 0.864786 
-39.484726 -43.420380 109.843987 -0.178920 -0.468741 0.865026 
-36.025360 -41.462070 115.347801 0.441152 -0.236385 0.865741 
-39.391922 -37.388004 115.688591 -0.056928 0.498471 0.865035 
-39.444084 -37.715481 124.766533 -0.074250 0.497332 0.864377 
-35.754871 -39.828011 126.841240 0.501282 0.034147 0.864610 
-38.197979 -43.159981 129.150269 0.031387 -0.498097 0.866553 
-36.684082 -38.812038 125.912781 0.429236 0.256328 0.866056 
-37.791771 -37.923138 115.831436 0.237003 0.442304 0.864984 
-41.195770 -40.257156 103.583649 -0.493894 0.098209 0.863958 
-37.304596 -38.227123 103.120903 0.333222 0.376219 0.864536 
-37.778751 -38.024330 90.482048 0.246819 0.437612 0.864625 
-37.708073 -42.573315 86.269180 0.134953 -0.486121 0.863409 
-36.523815 -41.310974 80.084557 0.428901 -0.259159 0.865379 
-36.855259 -38.374275 76.320671 0.385629 0.321101 0.864976 
-40.598919 -38.881004 73.019295 -0.348726 0.361016 0.864903 
-36.125164 -41.063141 62.171993 0.465471 -0.191840 0.864022 
-35.785172 -40.120842 65.464203 0.491453 0.103989 -0.864673 
-37.296345 -42.787117 70.229141 0.308142 -0.400125 -0.863104 
-41.585213 -40.581272 73.694992 -0.492817 -0.095155 -0.864915 
-35.777370 -41.274014 74.348839 0.491739 -0.092112 -0.865857 
-36.049236 -39.203430 80.761894 0.433694 0.249336 -0.865876 
-40.221512 -43.118473 85.461304 -0.191348 -0.464278 -0.864773 
-38.903206 -43.318443 93.070518 0.017574 -0.498826 -0.866524 
-41.184803 -42.043713 101.801163 -0.384606 -0.320250 -0.865747 
-40.072544 -37.971691 105.142990 -0.305363 0.400501 -0.863917 
-36.193382 -41.761044 111.024506 0.461681 -0.194470 -0.865466 
-40.784763 -42.497860 128.491058 -0.307703 -0.396492 -0.864935 
-40.783787 -38.535179 131.895126 -0.413678 0.282400 -0.865518 
-37.485905 -38.134750 62.903545 0.172264 0.472622 -0.864265 
-40.065968 -38.017624 64.478668 -0.308142 0.400125 -0.863104 
-40.831280 -41.552334 65.894829 -0.405313 -0.298249 -0.864158 
-40.686462 -42.247665 71.194878 -0.317963 -0.388621 -0.864797 
-37.402271 -42.725880 73.974174 0.301828 -0.406013 -0.862585 
-36.401917 -38.939930 75.594749 0.390567 0.313985 -0.865373 
-40.497379 -38.507969 82.233345 -0.394579 0.311671 -0.864389 
-36.286716 -39.762909 85.561775 0.465471 0.191840 -0.864022 
-36.206135 -39.769878 86.874199 0.469435 0.185108 -0.863346 
-41.089859 -41.093018 97.639160 -0.458254 -0.207483 -0.864265 
-40.842426 -41.764187 99.000786 -0.381990 -0.320626 -0.866765 
-41.228481 -40.713177 102.722504 -0.482686 -0.134804 -0.865357 
-40.937004 -39.612846 103.790359 -0.492817 0.095155 -0.864915 
-36.413551 -41.778389 107.101082 0.453234 -0.210911 -0.866081 
-38.036301 -37.856144 109.973663 0.062612 0.499505 -0.864046 
-36.651218 -41.942574 117.188416 0.432039 -0.253160 -0.865594 
-37.950485 -37.809994 117.628960 0.077330 0.496318 -0.864690 
-36.766762 -38.934383 119.893036 0.358340 0.349112 -0.865860 
-36.368073 -40.111324 94.223793 0.993536 0.113516 0.001081 
-38.055367 -38.121868 108.399155 0.274561 0.961569 0.001210 
-39.159016 -38.088112 117.457237 -0.196558 0.980491 0.001149 
-36.631733 -41.474136 123.408928 0.883337 -0.468736 0.001320 
-37.224705 -42.204300 128.325699 0.630540 -0.776155 0.001374 
-36.413731 -40.902340 129.695282 0.974705 -0.223492 0.001170 
-39.328796 -38.550213 55.740776 0.000978 0.000978 -0.999999 
-34.002110 -39.890125 135.245285 0.994546 0.104293 0.001075 
-34.273182 -38.728256 134.568268 0.936483 0.350710 0.001257 
-39.986385 -35.800831 137.156830 -0.271059 0.962562 0.001205 
-40.900024 -36.179272 135.356995 -0.463513 0.886089 0.001321 
-42.457008 -37.518444 133.420578 -0.795211 0.606331 0.001369 
-39.505928 -45.035320 135.838257 -0.170816 -0.985302 0.001131 
-37.553802 -44.990456 134.150558 0.242814 -0.970072 0.001184 
-36.672565 -44.649784 136.106186 0.428870 -0.903365 0.001304 
-42.203243 -42.118454 138.290771 0.000978 0.000978 0.999999 
-39.722977 -43.771278 138.290771 0.000978 0.000978 0.999999 
-38.177925 -37.862354 138.125595 -0.146217 -0.688876 0.709979 
-39.100178 -39.879719 134.718903 0.000978 0.000978 0.999999 
-40.477356 -41.691319 134.718903 0.000978 0.000978 0.999999 
-41.081509 -40.770473 136.248840 0.999999 0.000978 0.000978 
-36.319012 -40.620369 135.295898 -0.999999 0.000978 0.000978 
-40.923985 -44.035381 138.285706 -0.369362 -0.602470 0.707533 
44.243595 -39.257275 110.179771 0.934187 0.356781 0.001261 
41.059570 -37.234951 102.870621 -0.074451 0.997224 0.001049 
44.390545 -39.680096 97.380142 0.975327 0.220763 0.001168 
40.964828 -37.247208 96.439682 -0.106419 0.994321 0.001075 
40.149288 -43.334511 83.014473 -0.363730 -0.931504 0.001267 
44.460617 -40.589714 82.161041 0.997849 -0.065552 0.001041 
38.425964 -39.089176 66.143623 -0.912475 0.409130 0.001291 
44.412117 -39.786491 61.826031 0.982468 0.186429 0.001144 
43.535099 -42.157833 58.158459 0.351640 -0.351640 0.867582 
38.498974 -40.084934 64.011452 -0.487867 0.113025 0.865570 
44.301666 -40.010864 65.849648 0.500299 0.001334 0.865851 
41.780350 -37.488831 69.967323 0.134467 0.481478 0.866082 
41.468315 -37.315613 74.990982 0.080041 0.492883 0.866406 
43.153694 -42.886494 89.714302 0.249660 -0.437283 0.863975 
43.844063 -38.954441 92.662308 0.462599 0.197832 0.864213 
39.620029 -37.977272 92.987839 -0.233228 0.443885 0.865200 
42.975685 -42.555508 96.271317 0.249662 -0.431235 0.867009 
40.898052 -37.459763 101.765404 -0.014816 0.499706 0.866068 
40.879078 -43.205803 115.096245 -0.128281 -0.482854 0.866254 
39.242004 -42.758011 119.901901 -0.367505 -0.339827 0.865712 
41.581680 -37.607567 122.132248 0.107104 0.486966 0.866829 
40.796227 -42.945011 126.662254 -0.156684 -0.475910 0.865424 
42.847897 -42.579193 120.428322 0.230379 -0.444195 0.865804 
40.491421 -42.995647 116.410065 -0.207767 -0.455891 0.865446 
42.489986 -38.153851 113.324867 0.298249 0.405313 0.864158 
43.057274 -42.014954 102.864204 0.314819 -0.391604 0.864601 
42.410690 -38.258636 100.700989 0.298249 0.405313 0.864158 
43.643116 -39.552181 99.221611 0.491453 0.103989 0.864673 
40.015862 -38.010517 98.183708 -0.175810 0.471290 0.864278 
39.267193 -41.820099 94.825752 -0.441152 -0.236385 0.865741 
39.228447 -41.932579 82.073502 -0.434831 -0.249990 0.865117 
39.244961 -38.589279 74.104012 -0.333607 0.373578 0.865532 
43.167126 -38.513390 73.827675 0.400501 0.305363 0.863917 
43.705460 -40.478638 73.793327 0.493894 -0.098209 0.863958 
39.349068 -38.957264 62.869781 -0.361402 0.346023 0.865827 
41.132523 -43.435734 65.198143 0.023064 -0.497905 -0.866925 
38.795567 -42.009232 67.505600 -0.387966 -0.314360 -0.866407 
40.214409 -42.897171 72.568283 -0.137841 -0.480268 -0.866223 
40.482124 -37.672466 78.461121 -0.201482 0.461170 -0.864134 
42.085892 -37.436241 81.015762 0.074250 0.497332 -0.864377 
39.684052 -42.644463 91.595062 -0.236385 -0.441152 -0.865741 
38.740818 -41.731277 94.101250 -0.416560 -0.279233 -0.865163 
42.173988 -37.534031 94.941116 0.089177 0.494010 -0.864871 
42.312057 -43.093964 96.934242 0.230379 -0.444195 -0.865804 
42.587269 -42.959976 98.217003 0.282043 -0.416203 -0.864423 
38.410458 -39.614895 104.157318 -0.498431 0.068412 -0.864226 
38.900257 -38.931465 120.507118 -0.455606 0.210625 -0.864905 
38.701202 -39.197433 123.107910 -0.474707 0.156288 -0.866157 
42.878891 -43.119156 126.324448 0.298618 -0.402752 -0.865227 
42.638336 -37.789295 127.887352 0.175362 0.470089 -0.865023 
39.345562 -38.338482 128.087997 -0.391604 0.314819 -0.864601 
43.022335 -42.798748 128.778275 0.336335 -0.373194 -0.864642 
43.851360 -39.155613 130.255676 0.423259 0.265485 -0.866239 
43.473701 -42.472744 131.382553 0.399442 -0.304555 -0.864692 
42.287785 -38.126514 57.789230 0.131771 0.485092 -0.864478 
38.939495 -40.025059 64.463371 -0.504619 -0.001339 -0.863341 
43.735069 -39.991493 67.750313 0.480853 0.150541 -0.863781 
39.695435 -42.568054 73.773735 -0.240168 -0.439553 -0.865512 
40.571217 -37.972633 79.550072 -0.211170 0.456786 -0.864149 
40.021454 -38.346275 83.350517 -0.330105 0.379236 -0.864413 
41.404472 -42.926643 91.588928 0.083032 -0.493971 -0.865505 
38.857918 -41.037537 92.570702 -0.462599 -0.197832 -0.864213 
41.614441 -37.797165 94.766762 0.001334 0.500299 -0.865851 
41.422424 -37.811077 99.839088 -0.036926 0.499184 -0.865709 
42.857197 -38.609840 104.654106 0.272538 0.424794 -0.863292 
43.053616 -42.241436 106.975975 0.391604 -0.314819 -0.864601 
41.247597 -37.823208 111.270821 -0.071462 0.497434 -0.864554 
40.799801 -42.837769 129.619675 -0.034194 -0.499233 -0.865793 
39.154999 -38.935349 130.536804 -0.444195 0.230379 -0.865804 
43.602757 -39.936745 94.286591 0.982047 0.188635 0.001143 
42.153618 -38.191940 98.352554 0.363730 0.931504 0.001267 
40.725719 -42.654762 103.974159 -0.243373 -0.969932 0.001187 
41.021248 -38.064796 118.671951 -0.118545 0.992948 0.001088 
40.426491 -43.192722 56.347805 -0.166442 -0.547309 -0.820213 
45.116711 -37.596928 134.742615 0.807966 0.589227 0.001367 
44.415161 -36.817795 134.173553 0.658602 0.752490 0.001381 
41.508430 -35.643864 135.106186 0.045917 0.998945 0.001020 
39.460896 -44.728008 133.401703 -0.390517 -0.920595 0.001280 
45.663067 -42.183422 133.882080 0.924094 -0.382163 0.001278 
42.661636 -37.104603 138.290771 0.000978 0.000978 0.999999 
41.015087 -43.274357 131.940781 0.000978 0.000978 -0.999999 
43.542641 -40.812946 134.718903 0.000978 0.000978 0.999999 
40.729507 -42.799294 134.890900 0.500299 0.865851 0.001334 
42.617359 -42.367790 135.879410 -0.500299 0.865851 0.001334 
43.680988 -40.718353 136.673599 -0.999999 0.000978 0.000978 
42.901226 -38.553879 134.819443 -0.500299 -0.865851 0.001334 
38.594955 -36.546085 137.849243 -0.407622 0.572652 0.711276 
44.229328 40.776943 117.867821 0.930303 0.366791 0.001269 
43.654129 41.726135 97.596237 0.745961 0.665988 0.001379 
42.921520 42.347767 82.432777 0.510941 0.859615 0.001341 
42.410637 36.924793 58.023548 0.131626 -0.481663 0.866415 
39.665337 37.330952 60.416729 -0.339827 -0.367505 0.865712 
40.726917 36.791229 61.732727 -0.156288 -0.474707 0.866157 
39.360897 37.229729 66.607971 -0.358340 -0.349112 0.865860 
44.208576 39.464119 67.149155 0.495059 -0.086036 0.864589 
38.805878 41.426678 72.642822 -0.372586 0.332721 0.866301 
43.912327 38.504509 75.999512 0.436469 -0.246174 0.865386 
42.761875 42.013065 77.590210 0.314819 0.391604 0.864601 
38.830055 41.486084 77.709076 -0.363869 0.339304 0.867451 
44.093994 38.223511 84.716850 0.424373 -0.266184 0.865479 
39.056034 41.407387 91.807053 -0.351640 0.351640 0.867582 
44.123386 40.846252 92.537491 0.476187 0.149992 0.866457 
40.275276 42.456825 94.156067 -0.113025 0.487867 0.865570 
41.386913 42.456257 108.153824 0.071290 0.496231 0.865259 
42.973316 37.395767 110.218689 0.246174 -0.436469 0.865386 
39.060341 41.544319 115.883507 -0.338924 0.366529 0.866480 
43.604557 37.706055 116.494820 0.348184 -0.357388 0.866627 
38.988548 41.727585 122.129181 -0.330488 0.376603 0.865418 
42.633144 37.655003 125.694298 0.217178 -0.453827 0.864219 
42.253380 37.210503 125.517403 0.119426 -0.487777 0.864761 
43.647305 39.034821 99.145355 0.465471 -0.191840 0.864022 
41.544109 42.334869 89.150154 0.103877 0.488082 0.866594 
42.028252 42.052448 82.877037 0.211170 0.456786 0.864149 
39.753941 37.816048 77.168312 -0.379236 -0.330105 0.864413 
41.063217 42.277718 73.979393 0.014816 0.499706 0.866068 
43.430161 38.060837 69.721909 0.363489 -0.342017 0.866545 
39.760117 41.487377 65.363663 -0.256666 0.432839 0.864160 
39.016121 38.544117 63.022709 -0.475910 -0.156684 0.865424 
42.758812 42.379524 58.154442 0.182032 0.466179 -0.865761 
38.662899 41.036022 58.398952 -0.464278 0.191348 -0.864773 
44.233753 39.999256 69.301987 0.485410 0.122433 -0.865672 
39.138577 37.391903 72.689819 -0.304555 -0.399442 -0.864692 
43.932781 38.398266 85.669083 0.473197 -0.162616 -0.865818 
38.256512 39.173012 94.135277 -0.483880 -0.131442 -0.865207 
39.187344 41.427925 97.608849 -0.416560 0.279233 -0.865163 
38.262466 40.139725 101.691078 -0.502263 0.025862 -0.864328 
38.498703 40.365005 104.104713 -0.498431 0.068412 -0.864226 
42.060070 36.706272 112.212021 0.182246 -0.469690 -0.863816 
39.411942 41.929939 118.005424 -0.361402 0.346023 -0.865827 
43.046215 37.124420 119.928856 0.333222 -0.376219 -0.864536 
43.627663 37.640415 122.535522 0.416203 -0.282043 -0.864423 
43.437763 37.466274 130.116043 0.394579 -0.311671 -0.864389 
39.290932 41.856632 130.726822 -0.379236 0.330105 -0.864413 
43.601566 38.831913 58.745079 0.492817 -0.095155 -0.864915 
40.285625 42.076675 63.150883 -0.252828 0.434500 -0.864458 
39.869537 41.722507 66.931923 -0.339442 0.370160 -0.864732 
42.620262 37.307587 68.885811 0.308142 -0.400125 -0.863104 
39.423943 37.997383 71.048737 -0.330488 -0.376603 -0.865418 
39.336590 37.779781 74.983849 -0.320720 -0.388240 -0.863949 
39.327885 38.223389 76.074196 -0.367505 -0.339827 -0.865712 
42.539383 37.347031 76.460152 0.301828 -0.406013 -0.862585 
43.081238 41.537575 78.129211 0.285960 0.414412 -0.863996 
43.970596 39.626244 89.422867 0.498431 0.068412 -0.864226 
39.816071 37.674873 96.466255 -0.243323 -0.442817 -0.862964 
40.586750 41.907368 108.692757 -0.217742 0.455005 -0.863458 
39.106571 40.795597 113.986588 -0.468741 0.178920 -0.865026 
40.576008 37.020458 117.009033 -0.071462 -0.497434 -0.864554 
39.155296 41.277149 120.440300 -0.429236 0.256328 -0.866056 
39.089581 40.837681 126.703140 -0.467121 0.185365 -0.864545 
42.739532 41.478119 72.902016 0.613750 0.789499 0.001373 
43.315388 40.821842 118.539726 0.858436 0.512919 0.001339 
39.218822 40.686638 121.445549 -0.889912 0.456129 0.001314 
41.569931 41.936275 131.321762 0.116148 0.993231 0.001085 
44.280010 43.285912 134.969818 0.630540 0.776155 0.001374 
37.851616 42.883755 135.083130 -0.726206 0.687475 0.001383 
37.118744 41.865841 133.025543 -0.881065 0.472993 0.001325 
41.712193 34.912910 133.947586 0.088049 -0.996116 0.001061 
44.994301 36.679623 137.405380 0.782341 -0.622848 0.001375 
45.632141 37.741909 136.192169 0.917539 -0.397643 0.001287 
40.806656 43.692627 138.290771 0.000978 0.000978 0.999999 
38.301159 39.148090 138.290771 0.000978 0.000978 0.999999 
44.373558 40.300564 131.940781 0.000978 0.000978 -0.999999 
43.048550 39.517956 134.718903 0.000978 0.000978 0.999999 
43.679420 38.247707 134.718903 0.000978 0.000978 0.999999 
40.849030 41.567970 134.718903 0.000978 0.000978 0.999999 
39.791229 41.499802 135.062897 0.500299 -0.865851 0.001334 
43.977531 40.258724 65.787956 -0.468741 -0.178920 0.865026 
42.880619 37.326824 66.832718 -0.333222 0.376219 0.864536 
