ply
format ascii 1.0
comment Created by CloudCompare v2.12.0 (Kyiv)
comment Created 2023-02-04T20:21:22
obj_info Generated by CloudCompare!
element vertex 801
property float x
property float y
property float z
property float nx
property float ny
property float nz
end_header
37.499191 -17.339725 131.940781 0.000978 0.000978 0.999999 
38.615398 -17.614737 131.940781 0.000978 0.000978 0.999999 
48.871208 8.703857 131.940781 0.000978 0.000978 0.999999 
48.594875 -28.722744 131.940781 0.000978 0.000978 0.999999 
37.932831 -21.290432 131.940781 0.000978 0.000978 0.999999 
34.902233 -16.861050 131.940781 0.000978 0.000978 0.999999 
39.779491 -2.464440 131.940781 0.000978 0.000978 0.999999 
41.042645 -1.359485 131.940781 0.000978 0.000978 0.999999 
48.112312 -9.191124 131.940781 0.000978 0.000978 0.999999 
45.983788 3.622824 131.940781 0.000978 0.000978 0.999999 
42.097168 -34.216984 131.940781 0.000978 0.000978 0.999999 
25.699020 -33.177822 131.940781 0.000978 0.000978 0.999999 
31.828285 -40.204845 131.940781 0.000978 0.000978 0.999999 
18.768194 -37.825905 131.940781 0.000978 0.000978 0.999999 
-10.586529 -32.439655 131.940781 0.000978 0.000978 0.999999 
-1.000015 -31.146019 131.940781 0.000978 0.000978 0.999999 
23.576809 -35.714085 131.940781 0.000978 0.000978 0.999999 
24.467869 -43.715046 131.940781 0.000978 0.000978 0.999999 
-30.467487 -47.137543 131.940781 0.000978 0.000978 0.999999 
-10.846239 -40.934444 131.940781 0.000978 0.000978 0.999999 
4.065426 -43.914509 131.940781 0.000978 0.000978 0.999999 
-12.042513 -45.883038 131.940781 0.000978 0.000978 0.999999 
32.187435 -47.083134 131.940781 0.000978 0.000978 0.999999 
-13.354118 -46.882015 131.940781 0.000978 0.000978 0.999999 
7.300114 -45.616833 131.940781 0.000978 0.000978 0.999999 
0.140911 -39.582592 131.940781 0.000978 0.000978 0.999999 
13.486708 -40.464752 131.940781 0.000978 0.000978 0.999999 
-21.716579 -42.153404 131.940781 0.000978 0.000978 0.999999 
39.320839 -35.269016 131.940781 0.000978 0.000978 0.999999 
49.537743 -41.265865 131.940781 0.000978 0.000978 0.999999 
-35.321316 25.179085 131.940781 0.000978 0.000978 0.999999 
-43.036221 30.924908 131.940781 0.000978 0.000978 0.999999 
-36.495567 19.681038 131.940781 0.000978 0.000978 0.999999 
-36.628345 18.011316 131.940781 0.000978 0.000978 0.999999 
-39.501987 30.238298 131.940781 0.000978 0.000978 0.999999 
-38.045574 -12.803299 131.940781 0.000978 0.000978 0.999999 
-47.288227 28.550360 131.940781 0.000978 0.000978 0.999999 
-37.642292 -14.681913 131.940781 0.000978 0.000978 0.999999 
-40.226902 10.302783 131.940781 0.000978 0.000978 0.999999 
-36.475834 -11.420595 131.940781 0.000978 0.000978 0.999999 
-34.777954 -1.366141 131.940781 0.000978 0.000978 0.999999 
-44.765110 2.137863 131.940781 0.000978 0.000978 0.999999 
-46.762405 6.392342 131.940781 0.000978 0.000978 0.999999 
-41.919102 -1.650980 131.940781 0.000978 0.000978 0.999999 
-46.873070 0.631829 131.940781 0.000978 0.000978 0.999999 
27.323103 -26.057997 131.940781 0.000978 0.000978 0.999999 
14.659914 -17.263489 131.940781 0.000978 0.000978 0.999999 
22.327755 -16.916571 131.940781 0.000978 0.000978 0.999999 
19.938824 -16.866720 131.940781 0.000978 0.000978 0.999999 
4.132377 4.886904 131.940781 0.000978 0.000978 0.999999 
14.240556 8.654028 131.940781 0.000978 0.000978 0.999999 
13.402754 12.813157 131.940781 0.000978 0.000978 0.999999 
-20.086954 26.362520 131.940781 0.000978 0.000978 0.999999 
-14.846193 18.269316 131.940781 0.000978 0.000978 0.999999 
-15.570642 19.944403 131.940781 0.000978 0.000978 0.999999 
-16.128239 13.254528 131.940781 0.000978 0.000978 0.999999 
-11.109911 7.403243 131.940781 0.000978 0.000978 0.999999 
-3.749888 1.593355 131.940781 0.000978 0.000978 0.999999 
-4.102741 -4.681438 131.940781 0.000978 0.000978 0.999999 
-11.357856 -15.309289 131.940781 0.000978 0.000978 0.999999 
-20.298481 -25.738237 131.940781 0.000978 0.000978 0.999999 
13.886322 30.179144 131.940781 0.000978 0.000978 0.999999 
-33.492107 46.180733 131.940781 0.000978 0.000978 0.999999 
3.058949 31.218937 131.940781 0.000978 0.000978 0.999999 
-13.856993 32.414764 131.940781 0.000978 0.000978 0.999999 
-1.049405 34.306396 131.940781 0.000978 0.000978 0.999999 
31.299740 14.456594 130.038986 -0.999999 0.000978 0.000978 
31.299740 2.408780 130.771088 -0.999999 0.000978 0.000978 
28.812769 21.083860 131.243164 -0.004907 -0.999987 0.000981 
24.239269 -18.318419 131.298752 0.707106 0.707106 0.001384 
14.103763 -8.182912 130.184952 0.707106 0.707106 0.001384 
-28.700260 -4.098133 129.220337 0.999999 0.000978 0.000978 
-19.271313 25.192162 130.092636 0.707106 0.707106 0.001384 
2.272165 5.876606 130.500275 -0.393609 0.919277 0.001282 
-0.355116 6.302237 129.507950 0.665988 0.745961 0.001379 
20.283752 23.605122 131.111389 -0.707106 0.707106 0.001384 
9.517118 29.621111 131.439133 0.000978 -0.999999 0.000978 
32.067616 -32.743656 130.282333 -0.309560 0.950879 0.001233 
33.728649 -30.918884 129.970795 -0.975939 0.218041 0.001166 
3.487436 0.816469 130.211746 -0.877641 -0.479317 0.001328 
-3.581480 -30.378889 131.341049 0.000978 0.999999 0.000978 
11.212739 -15.291890 131.530365 -0.707106 -0.707106 0.001384 
-30.040159 -32.474972 129.241837 0.539322 0.842099 0.001352 
-26.225189 29.431751 131.818985 -0.997054 0.076696 0.001051 
-46.714397 -46.220924 129.633987 -0.807966 -0.589227 0.001367 
-48.368568 -42.898354 129.642639 -0.967197 -0.254023 0.001193 
-48.700260 -20.601957 130.616226 -0.999999 0.000978 0.000978 
-48.700260 33.646999 130.428070 -0.999999 0.000978 0.000978 
-5.998390 49.621109 130.521957 0.000978 0.999999 0.000978 
8.940014 49.621109 129.336395 0.000978 0.999999 0.000978 
-39.811966 30.844009 128.940781 0.000978 0.000978 -0.999999 
-30.085150 26.550457 128.940781 0.000978 0.000978 -0.999999 
-28.453892 26.058289 128.940781 0.000978 0.000978 -0.999999 
-26.208269 21.910957 128.940781 0.000978 0.000978 -0.999999 
-25.685076 24.061470 128.940781 0.000978 0.000978 -0.999999 
-34.391815 43.539413 128.940781 0.000978 0.000978 -0.999999 
-29.159204 32.300297 128.940781 0.000978 0.000978 -0.999999 
-27.015287 -24.948624 128.940781 0.000978 0.000978 -0.999999 
-39.001060 -35.632172 128.940781 0.000978 0.000978 -0.999999 
-43.534710 -37.525600 128.940781 0.000978 0.000978 -0.999999 
33.561531 35.353745 128.940781 0.000978 0.000978 -0.999999 
36.009808 38.681854 128.940781 0.000978 0.000978 -0.999999 
7.116461 36.361824 128.940781 0.000978 0.000978 -0.999999 
15.970379 33.389153 128.940781 0.000978 0.000978 -0.999999 
9.537800 36.849621 128.940781 0.000978 0.000978 -0.999999 
29.579292 42.549892 128.940781 0.000978 0.000978 -0.999999 
5.389051 32.560013 128.940781 0.000978 0.000978 -0.999999 
-0.852348 47.880062 128.940781 0.000978 0.000978 -0.999999 
-12.558821 44.451511 128.940781 0.000978 0.000978 -0.999999 
5.967922 45.409538 128.940781 0.000978 0.000978 -0.999999 
-29.022572 47.517479 128.940781 0.000978 0.000978 -0.999999 
-13.263714 48.106823 128.940781 0.000978 0.000978 -0.999999 
-10.069286 45.074238 128.940781 0.000978 0.000978 -0.999999 
-24.475456 45.351070 128.940781 0.000978 0.000978 -0.999999 
-13.154736 48.460461 128.940781 0.000978 0.000978 -0.999999 
-11.321447 36.011726 128.940781 0.000978 0.000978 -0.999999 
-16.770655 30.151718 128.940781 0.000978 0.000978 -0.999999 
35.031635 27.854450 128.940781 0.000978 0.000978 -0.999999 
49.133518 38.280441 128.940781 0.000978 0.000978 -0.999999 
36.559559 6.859137 128.940781 0.000978 0.000978 -0.999999 
37.788868 25.207317 128.940781 0.000978 0.000978 -0.999999 
40.653324 10.965122 128.940781 0.000978 0.000978 -0.999999 
46.036964 33.573402 128.940781 0.000978 0.000978 -0.999999 
43.268776 26.148520 128.940781 0.000978 0.000978 -0.999999 
43.008553 -9.887068 128.940781 0.000978 0.000978 -0.999999 
51.270500 -38.682167 128.940781 0.000978 0.000978 -0.999999 
49.463997 3.319622 128.940781 0.000978 0.000978 -0.999999 
43.823601 0.390847 128.940781 0.000978 0.000978 -0.999999 
44.108170 8.354313 128.940781 0.000978 0.000978 -0.999999 
47.909904 -15.116506 128.940781 0.000978 0.000978 -0.999999 
41.981682 -14.485416 128.940781 0.000978 0.000978 -0.999999 
45.160007 -16.611084 128.940781 0.000978 0.000978 -0.999999 
36.669598 -16.406168 128.940781 0.000978 0.000978 -0.999999 
47.614014 -4.749000 128.940781 0.000978 0.000978 -0.999999 
43.162975 -32.101505 128.940781 0.000978 0.000978 -0.999999 
34.034889 -42.289562 128.940781 0.000978 0.000978 -0.999999 
32.099041 -37.431187 128.940781 0.000978 0.000978 -0.999999 
23.949303 -31.085997 128.940781 0.000978 0.000978 -0.999999 
41.369877 -35.371880 128.940781 0.000978 0.000978 -0.999999 
15.022922 -50.094627 128.940781 0.000978 0.000978 -0.999999 
-15.091293 -46.677361 128.940781 0.000978 0.000978 -0.999999 
-35.160660 -49.201633 128.940781 0.000978 0.000978 -0.999999 
11.165678 -39.362289 128.940781 0.000978 0.000978 -0.999999 
18.620224 -48.386318 128.940781 0.000978 0.000978 -0.999999 
-20.693117 -46.813309 128.940781 0.000978 0.000978 -0.999999 
14.916465 -47.549351 128.940781 0.000978 0.000978 -0.999999 
13.535154 -48.119041 128.940781 0.000978 0.000978 -0.999999 
20.528946 -33.721725 128.940781 0.000978 0.000978 -0.999999 
5.762337 -40.460434 128.940781 0.000978 0.000978 -0.999999 
-12.401337 -36.870941 128.940781 0.000978 0.000978 -0.999999 
-17.704063 -34.377747 128.940781 0.000978 0.000978 -0.999999 
-2.011580 -37.366367 128.940781 0.000978 0.000978 -0.999999 
-24.788984 -38.481739 128.940781 0.000978 0.000978 -0.999999 
-2.970058 -33.125870 128.940781 0.000978 0.000978 -0.999999 
-31.532602 -19.596846 128.940781 0.000978 0.000978 -0.999999 
-39.455387 -4.415723 128.940781 0.000978 0.000978 -0.999999 
-38.301548 -4.530477 128.940781 0.000978 0.000978 -0.999999 
-43.587002 2.642514 128.940781 0.000978 0.000978 -0.999999 
-47.002041 10.135963 128.940781 0.000978 0.000978 -0.999999 
-41.946793 -1.567481 128.940781 0.000978 0.000978 -0.999999 
-38.495468 0.192035 128.940781 0.000978 0.000978 -0.999999 
-42.949917 -12.759123 128.940781 0.000978 0.000978 -0.999999 
-46.700867 -3.682425 128.940781 0.000978 0.000978 -0.999999 
-32.876579 -12.169025 128.940781 0.000978 0.000978 -0.999999 
-35.821503 -1.207951 128.940781 0.000978 0.000978 -0.999999 
-32.996284 18.080437 128.940781 0.000978 0.000978 -0.999999 
-31.198608 20.987774 128.940781 0.000978 0.000978 -0.999999 
-36.201023 24.291925 128.940781 0.000978 0.000978 -0.999999 
-29.292963 -9.278472 128.940781 0.000978 0.000978 -0.999999 
-20.574759 -21.903564 128.940781 0.000978 0.000978 -0.999999 
-1.927996 -7.670452 128.940781 0.000978 0.000978 -0.999999 
-9.881697 8.977882 128.940781 0.000978 0.000978 -0.999999 
-16.306938 21.164619 128.940781 0.000978 0.000978 -0.999999 
-23.582214 -23.285521 128.940781 0.000978 0.000978 -0.999999 
17.681843 -20.028942 128.940781 0.000978 0.000978 -0.999999 
17.435272 -13.221924 128.940781 0.000978 0.000978 -0.999999 
4.754727 -1.652773 128.940781 0.000978 0.000978 -0.999999 
28.600098 29.500671 128.940781 0.000978 0.000978 -0.999999 
33.218670 28.035351 128.940781 0.000978 0.000978 -0.999999 
0.910343 2.862354 128.940781 0.000978 0.000978 -0.999999 
7.412268 6.181417 128.940781 0.000978 0.000978 -0.999999 
18.140869 20.482042 128.940781 0.000978 0.000978 -0.999999 
-37.474129 42.548302 93.778320 0.387428 0.921899 0.001279 
-39.580467 42.667343 57.188961 -0.277440 0.960742 0.001212 
-36.401051 41.658886 58.316666 0.410426 0.288366 0.865099 
-37.533619 36.723595 59.178566 0.131771 -0.485092 0.864478 
-36.766056 37.193218 88.460983 0.265840 -0.426863 0.864359 
-37.016975 41.815990 89.009254 0.354885 0.354885 0.864936 
-35.653111 40.159519 91.222427 0.500145 0.031344 0.865374 
-36.523945 41.343445 102.924240 0.426085 0.262323 0.865817 
-36.267357 41.435539 106.578056 0.429236 0.256328 0.866056 
-35.974117 38.075134 110.109833 0.410426 -0.288366 0.865099 
-41.154045 41.188446 121.017105 -0.390941 0.311220 0.866203 
-37.109280 41.398243 128.593552 0.385629 0.321101 0.864976 
-36.353882 38.375362 125.627335 0.410786 -0.285565 0.865857 
-40.670883 41.504089 108.391190 -0.314819 0.391604 0.864601 
-39.848526 41.925880 103.323723 -0.156466 0.478171 0.864217 
-36.192924 38.568745 87.501045 0.434019 -0.246498 0.866525 
-40.537716 41.170895 86.992569 -0.333607 0.373578 0.865532 
-40.651028 37.971565 80.836304 -0.421183 -0.272173 0.865174 
-36.477463 40.512142 76.419846 0.485410 0.122433 0.865672 
-36.739014 41.289501 59.870220 0.418328 0.275336 0.865559 
-38.526791 42.657917 88.681572 -0.023033 0.499942 -0.865753 
-37.091412 41.620724 60.339134 0.255994 0.431706 -0.864926 
-37.458626 37.178295 62.578190 0.285206 -0.413320 -0.864769 
-40.041779 41.611401 66.847382 -0.343455 0.368097 -0.864027 
-37.199799 41.470535 69.115723 0.253491 0.435640 -0.863690 
-39.615368 37.161865 78.855591 -0.110199 -0.488023 -0.865847 
-41.267960 39.671261 81.105072 -0.499590 -0.059839 -0.864193 
-40.940365 38.260193 91.412483 -0.393534 -0.310846 -0.865162 
-39.065582 37.016285 95.415810 -0.009394 -0.500591 -0.865633 
-38.167469 42.201294 96.037086 0.037014 0.500369 -0.865021 
-40.954090 40.470703 96.191879 -0.487867 0.113025 -0.865570 
-41.221191 38.644970 100.323990 -0.441152 -0.236385 -0.865741 
-41.089470 38.259285 121.958611 -0.405681 -0.295459 -0.864943 
-40.581642 41.266918 124.112289 -0.416560 0.279233 -0.865163 
-40.700073 37.976513 129.527618 -0.345638 -0.364072 -0.864862 
-36.361263 39.455204 80.216797 0.997548 -0.069985 0.001045 
-40.915329 40.364853 99.915657 -0.948187 0.317711 0.001236 
-37.957405 37.396935 124.398735 0.317711 -0.948187 0.001236 
-36.364166 39.411888 126.007225 0.996116 -0.088049 0.001061 
-35.994011 43.496174 133.187256 0.572458 0.819933 0.001360 
-41.513454 35.828106 135.516922 -0.595391 -0.803435 0.001369 
-39.018963 35.518650 138.290771 0.000978 0.000978 0.999999 
-39.540833 42.902897 131.940781 0.000978 0.000978 -0.999999 
-36.163235 -38.392174 68.844223 -0.787127 -0.616789 0.001374 
-39.938961 -37.404297 70.505234 0.385251 -0.922811 0.001280 
40.115734 -37.381641 70.147018 0.368984 -0.929435 0.001268 
-2.155289 48.621758 68.440857 0.000979 0.000979 -0.999999 
9.415813 49.484993 68.937981 0.001335 0.864020 -0.503455 
-6.178638 49.506199 68.986794 0.001318 0.889364 -0.457199 
-32.405293 49.562954 69.123810 0.001238 0.947186 -0.320681 
29.853243 49.615063 69.394844 0.001020 0.998945 -0.045917 
51.057114 13.333641 68.799171 0.762653 0.001379 -0.646807 
50.356304 13.376934 68.448219 0.058843 0.001032 -0.998267 
25.217699 -50.357262 69.276489 0.001127 -0.986179 -0.165678 
10.681171 -49.464390 68.452034 0.001059 -0.085761 -0.996315 
-48.115211 0.058159 68.539528 -0.418483 0.001296 -0.908224 
-47.995079 29.435200 68.489769 -0.297091 0.001223 -0.954848 
-47.846794 1.172989 68.460068 -0.147960 0.001112 -0.988993 
50.335510 -44.472313 70.312782 0.910632 -0.413217 0.001295 
51.299740 -33.903194 69.569786 0.999999 0.000978 0.000978 
51.299740 31.380896 71.209641 0.999999 0.000978 0.000978 
-13.685425 49.621109 70.001717 0.000978 0.999999 0.000978 
-7.675011 49.621109 71.376282 0.000978 0.999999 0.000978 
-21.991955 -28.858170 68.440773 0.000978 0.000978 -0.999999 
-23.517477 -29.871479 68.440773 0.000978 0.000978 -0.999999 
-34.161777 -40.685585 68.440773 0.000978 0.000978 -0.999999 
-41.874886 -42.307869 68.440773 0.000978 0.000978 -0.999999 
-34.831776 -38.160175 68.440773 0.000978 0.000978 -0.999999 
-42.401714 34.417053 68.440773 0.000978 0.000978 -0.999999 
-28.971907 24.622965 68.440773 0.000978 0.000978 -0.999999 
-27.728699 21.894720 68.440773 0.000978 0.000978 -0.999999 
-26.684444 34.957600 68.440773 0.000978 0.000978 -0.999999 
-35.697197 37.159096 68.440773 0.000978 0.000978 -0.999999 
-40.577858 45.196213 68.440773 0.000978 0.000978 -0.999999 
32.699482 -34.912525 68.440773 0.000978 0.000978 -0.999999 
32.246872 -33.276825 68.440773 0.000978 0.000978 -0.999999 
27.169788 -33.880398 68.440773 0.000978 0.000978 -0.999999 
33.878750 -40.534966 68.440773 0.000978 0.000978 -0.999999 
-1.098215 -47.455311 68.440773 0.000978 0.000978 -0.999999 
15.814589 -37.595539 68.440773 0.000978 0.000978 -0.999999 
-18.175402 -46.734211 68.440773 0.000978 0.000978 -0.999999 
10.965436 -36.674980 68.440773 0.000978 0.000978 -0.999999 
-16.820208 -48.482010 68.440773 0.000978 0.000978 -0.999999 
3.128881 -48.714405 68.440773 0.000978 0.000978 -0.999999 
-2.934692 -45.260201 68.440773 0.000978 0.000978 -0.999999 
32.460754 -43.885223 68.440773 0.000978 0.000978 -0.999999 
-2.990953 -47.297600 68.440773 0.000978 0.000978 -0.999999 
1.247534 -39.330566 68.440773 0.000978 0.000978 -0.999999 
44.998741 -38.951756 68.440773 0.000978 0.000978 -0.999999 
35.510036 -24.073601 68.440773 0.000978 0.000978 -0.999999 
32.081970 3.833286 68.440773 0.000978 0.000978 -0.999999 
46.429199 -36.070740 68.440773 0.000978 0.000978 -0.999999 
31.398102 -18.901695 68.440773 0.000978 0.000978 -0.999999 
32.945278 3.256958 68.440773 0.000978 0.000978 -0.999999 
43.975361 -28.351351 68.440773 0.000978 0.000978 -0.999999 
47.227707 -17.308626 68.440773 0.000978 0.000978 -0.999999 
38.077713 4.219389 68.440773 0.000978 0.000978 -0.999999 
44.095131 23.257971 68.440773 0.000978 0.000978 -0.999999 
46.553970 -12.929794 68.440773 0.000978 0.000978 -0.999999 
46.977924 -13.677301 68.440773 0.000978 0.000978 -0.999999 
48.882282 34.066696 68.440773 0.000978 0.000978 -0.999999 
43.814125 26.707010 68.440773 0.000978 0.000978 -0.999999 
46.639114 12.102089 68.440773 0.000978 0.000978 -0.999999 
39.881771 -5.458352 68.440773 0.000978 0.000978 -0.999999 
41.565178 15.320871 68.440773 0.000978 0.000978 -0.999999 
36.324398 26.070572 68.440773 0.000978 0.000978 -0.999999 
35.991383 -32.079346 68.440773 0.000978 0.000978 -0.999999 
36.831596 41.264755 68.440773 0.000978 0.000978 -0.999999 
-1.122292 33.086140 68.440773 0.000978 0.000978 -0.999999 
25.772900 40.508965 68.440773 0.000978 0.000978 -0.999999 
14.716127 38.906372 68.440773 0.000978 0.000978 -0.999999 
7.195253 36.191933 68.440773 0.000978 0.000978 -0.999999 
22.308474 37.341991 68.440773 0.000978 0.000978 -0.999999 
-22.071367 37.412514 68.440773 0.000978 0.000978 -0.999999 
22.969391 47.341259 68.440773 0.000978 0.000978 -0.999999 
-13.258812 44.906166 68.440773 0.000978 0.000978 -0.999999 
-6.530443 39.195740 68.440773 0.000978 0.000978 -0.999999 
-1.676098 40.095844 68.440773 0.000978 0.000978 -0.999999 
-16.000530 41.941067 68.440773 0.000978 0.000978 -0.999999 
-29.298779 45.419209 68.440773 0.000978 0.000978 -0.999999 
-5.192898 42.410118 68.440773 0.000978 0.000978 -0.999999 
-19.312675 45.314590 68.440773 0.000978 0.000978 -0.999999 
-8.340789 32.888489 68.440773 0.000978 0.000978 -0.999999 
34.995262 33.406124 68.440773 0.000978 0.000978 -0.999999 
39.985363 32.236897 68.440773 0.000978 0.000978 -0.999999 
42.966801 44.541466 68.440773 0.000978 0.000978 -0.999999 
42.142891 46.578674 68.440773 0.000978 0.000978 -0.999999 
40.912663 44.015858 68.440773 0.000978 0.000978 -0.999999 
-32.459648 -22.238247 68.440773 0.000978 0.000978 -0.999999 
-34.806225 -11.982421 68.440773 0.000978 0.000978 -0.999999 
-40.583958 -23.202188 68.440773 0.000978 0.000978 -0.999999 
-29.462770 6.411642 68.440773 0.000978 0.000978 -0.999999 
-40.416912 10.239978 68.440773 0.000978 0.000978 -0.999999 
-40.001343 26.797974 68.440773 0.000978 0.000978 -0.999999 
-38.391747 2.870224 68.440773 0.000978 0.000978 -0.999999 
-44.519794 -9.724692 68.440773 0.000978 0.000978 -0.999999 
-40.161285 9.673686 68.440773 0.000978 0.000978 -0.999999 
-40.866283 -1.915260 68.440773 0.000978 0.000978 -0.999999 
-41.228294 7.490944 68.440773 0.000978 0.000978 -0.999999 
-46.872578 3.597314 68.440773 0.000978 0.000978 -0.999999 
-45.894863 17.002228 68.440773 0.000978 0.000978 -0.999999 
-34.105980 4.195574 68.440773 0.000978 0.000978 -0.999999 
18.582842 19.278669 68.440773 0.000978 0.000978 -0.999999 
25.663942 20.553930 68.440773 0.000978 0.000978 -0.999999 
6.124323 4.624889 68.440773 0.000978 0.000978 -0.999999 
6.418404 1.861761 68.440773 0.000978 0.000978 -0.999999 
9.736145 -6.102713 68.440773 0.000978 0.000978 -0.999999 
17.179586 -20.503174 68.440773 0.000978 0.000978 -0.999999 
31.062948 -27.514627 68.440773 0.000978 0.000978 -0.999999 
31.386955 -27.795805 68.440773 0.000978 0.000978 -0.999999 
-21.693085 -21.245214 68.440773 0.000978 0.000978 -0.999999 
-15.661267 -14.412786 68.440773 0.000978 0.000978 -0.999999 
-14.291808 -11.240997 68.440773 0.000978 0.000978 -0.999999 
-13.440649 10.766018 68.440773 0.000978 0.000978 -0.999999 
-15.685832 20.467339 68.440773 0.000978 0.000978 -0.999999 
-1.804675 7.173892 68.440773 0.000978 0.000978 -0.999999 
-10.216062 -33.054043 68.440773 0.000978 0.000978 -0.999999 
3.779644 -31.402225 68.440773 0.000978 0.000978 -0.999999 
-19.621656 -32.172958 68.440773 0.000978 0.000978 -0.999999 
3.375757 -34.646530 68.440773 0.000978 0.000978 -0.999999 
-9.260275 -31.628548 68.440773 0.000978 0.000978 -0.999999 
24.005362 -29.920364 68.440773 0.000978 0.000978 -0.999999 
-0.120444 -3.337905 68.440773 0.000978 0.000978 -0.999999 
9.658732 -3.737884 70.669388 0.707106 0.707106 0.001384 
-28.700260 2.379539 68.821411 0.999999 0.000978 0.000978 
-28.616373 19.222763 70.296135 0.966452 -0.256844 0.001195 
-13.854887 9.775735 69.109886 -0.707106 -0.707106 0.001384 
-18.014502 -24.693130 70.034821 0.707106 -0.707106 0.001384 
13.371734 -17.450882 70.851303 -0.707106 -0.707106 0.001384 
3.041864 -30.378889 70.845581 0.000978 0.999999 0.000978 
31.984253 27.221815 71.207779 -0.274561 0.961569 0.001210 
30.183517 27.400635 69.452736 0.449834 0.893111 0.001311 
0.477543 1.963376 69.902489 0.332624 -0.943059 0.001246 
31.236536 -32.870571 69.522697 0.027071 0.999633 0.001003 
-3.581678 29.621111 70.549591 0.000978 -0.999999 0.000978 
-9.141493 29.621111 68.796722 0.000978 -0.999999 0.000978 
17.893723 21.215094 71.038284 -0.707106 0.707106 0.001384 
16.520872 19.842243 68.539360 -0.707106 0.707106 0.001384 
-18.742279 24.663128 70.415329 0.707106 0.707106 0.001384 
-3.414623 9.335472 70.425507 0.707106 0.707106 0.001384 
-19.602657 28.667116 70.400810 0.781002 -0.624527 0.001373 
-48.061058 42.929852 70.844009 -0.942782 0.333408 0.001249 
-48.700260 10.223232 69.678200 -0.999999 0.000978 0.000978 
-48.700260 -2.493926 70.517708 -0.999999 0.000978 0.000978 
-42.965729 -49.343395 69.949287 -0.430994 -0.902354 0.001302 
-40.620819 -50.126041 70.872437 -0.193909 -0.981019 0.001147 
-31.864546 -50.378891 69.995850 0.000978 -0.999999 0.000978 
35.936123 -50.378891 69.617981 0.000978 -0.999999 0.000978 
-0.828272 -50.378891 70.792221 0.000978 -0.999999 0.000978 
-33.672382 -27.644444 71.440773 0.000978 0.000978 0.999999 
-27.480751 -23.298885 71.440773 0.000978 0.000978 0.999999 
-20.770992 -26.720997 71.440773 0.000978 0.000978 0.999999 
-26.496105 -33.797359 71.440773 0.000978 0.000978 0.999999 
-31.845383 -37.056740 71.440773 0.000978 0.000978 0.999999 
-41.732742 -42.769947 71.440773 0.000978 0.000978 0.999999 
-40.530560 44.466408 71.440773 0.000978 0.000978 0.999999 
-23.500393 34.726822 71.440773 0.000978 0.000978 0.999999 
-33.835068 39.418621 71.440773 0.000978 0.000978 0.999999 
-21.206890 29.240568 71.440773 0.000978 0.000978 0.999999 
-44.872673 37.040325 71.440773 0.000978 0.000978 0.999999 
34.451122 -38.265533 71.440773 0.000978 0.000978 0.999999 
36.666985 -43.670303 71.440773 0.000978 0.000978 0.999999 
17.842216 -39.455921 71.440773 0.000978 0.000978 0.999999 
16.858210 -38.919262 71.440773 0.000978 0.000978 0.999999 
5.040798 -37.226219 71.440773 0.000978 0.000978 0.999999 
17.513908 -32.907177 71.440773 0.000978 0.000978 0.999999 
2.370886 -42.773598 71.440773 0.000978 0.000978 0.999999 
-8.297071 -35.596313 71.440773 0.000978 0.000978 0.999999 
1.136045 -41.686543 71.440773 0.000978 0.000978 0.999999 
-13.527857 -34.062565 71.440773 0.000978 0.000978 0.999999 
-6.633730 -42.138512 71.440773 0.000978 0.000978 0.999999 
-14.357525 -48.886051 71.440773 0.000978 0.000978 0.999999 
14.126335 -50.287903 71.440773 0.000978 0.000978 0.999999 
-12.924271 -44.240295 71.440773 0.000978 0.000978 0.999999 
7.874257 -40.415001 71.440773 0.000978 0.000978 0.999999 
-10.291336 -48.832077 71.440773 0.000978 0.000978 0.999999 
38.259239 -29.666405 71.440773 0.000978 0.000978 0.999999 
35.706604 -10.523630 71.440773 0.000978 0.000978 0.999999 
48.680443 -32.863571 71.440773 0.000978 0.000978 0.999999 
44.947559 -30.913860 71.440773 0.000978 0.000978 0.999999 
37.966194 -20.360136 71.440773 0.000978 0.000978 0.999999 
35.354824 -14.424355 71.440773 0.000978 0.000978 0.999999 
49.263756 -19.272451 71.440773 0.000978 0.000978 0.999999 
50.473476 2.743762 71.440773 0.000978 0.000978 0.999999 
50.494854 11.499943 71.440773 0.000978 0.000978 0.999999 
44.777367 18.935791 71.440773 0.000978 0.000978 0.999999 
51.094231 -36.224640 71.440773 0.000978 0.000978 0.999999 
45.305523 -9.358418 71.440773 0.000978 0.000978 0.999999 
34.655674 21.380024 71.440773 0.000978 0.000978 0.999999 
35.845177 21.644175 71.440773 0.000978 0.000978 0.999999 
37.407776 17.684027 71.440773 0.000978 0.000978 0.999999 
38.695206 10.818714 71.440773 0.000978 0.000978 0.999999 
46.566158 -16.337736 71.440773 0.000978 0.000978 0.999999 
43.509464 33.655956 71.440773 0.000978 0.000978 0.999999 
49.650650 41.626633 71.440773 0.000978 0.000978 0.999999 
33.528656 38.180279 71.440773 0.000978 0.000978 0.999999 
33.965309 26.842997 71.440773 0.000978 0.000978 0.999999 
19.972530 44.125427 71.440773 0.000978 0.000978 0.999999 
25.339689 42.959419 71.440773 0.000978 0.000978 0.999999 
-7.923413 45.833687 71.440773 0.000978 0.000978 0.999999 
19.368294 34.979515 71.440773 0.000978 0.000978 0.999999 
30.724014 48.217083 71.440773 0.000978 0.000978 0.999999 
9.797680 42.307205 71.440773 0.000978 0.000978 0.999999 
8.209706 37.881737 71.440773 0.000978 0.000978 0.999999 
19.879818 43.868618 71.440773 0.000978 0.000978 0.999999 
-26.903339 48.695198 71.440773 0.000978 0.000978 0.999999 
6.994753 34.986496 71.440773 0.000978 0.000978 0.999999 
-23.550629 37.604443 71.440773 0.000978 0.000978 0.999999 
-15.418850 31.028521 71.440773 0.000978 0.000978 0.999999 
11.164700 29.920755 71.440773 0.000978 0.000978 0.999999 
-29.429758 44.188423 71.440773 0.000978 0.000978 0.999999 
-15.819604 31.721617 71.440773 0.000978 0.000978 0.999999 
-34.895775 20.981682 71.440773 0.000978 0.000978 0.999999 
-40.359283 11.859401 71.440773 0.000978 0.000978 0.999999 
-36.642460 15.044382 71.440773 0.000978 0.000978 0.999999 
-33.978165 18.723919 71.440773 0.000978 0.000978 0.999999 
-45.585983 -17.600742 71.440773 0.000978 0.000978 0.999999 
-45.953720 -25.708099 71.440773 0.000978 0.000978 0.999999 
-33.568626 20.550362 71.440773 0.000978 0.000978 0.999999 
-45.996239 28.441236 71.440773 0.000978 0.000978 0.999999 
-40.975220 19.135998 71.440773 0.000978 0.000978 0.999999 
-45.815052 -14.882716 71.440773 0.000978 0.000978 0.999999 
-40.555099 17.623051 71.440773 0.000978 0.000978 0.999999 
-36.882282 -17.494774 71.440773 0.000978 0.000978 0.999999 
-32.758442 -4.356316 71.440773 0.000978 0.000978 0.999999 
-31.005590 5.244853 71.440773 0.000978 0.000978 0.999999 
-29.855515 3.405884 71.440773 0.000978 0.000978 0.999999 
-32.015278 -14.505991 71.440773 0.000978 0.000978 0.999999 
-17.172911 17.355680 71.440773 0.000978 0.000978 0.999999 
-1.141168 5.965265 71.440773 0.000978 0.000978 0.999999 
-18.468563 -17.128870 71.440773 0.000978 0.000978 0.999999 
-4.043206 -9.375005 71.440773 0.000978 0.000978 0.999999 
6.071810 9.025485 71.440773 0.000978 0.000978 0.999999 
10.994689 10.705112 71.440773 0.000978 0.000978 0.999999 
2.838369 4.008505 71.440773 0.000978 0.000978 0.999999 
13.047932 -8.198235 71.440773 0.000978 0.000978 0.999999 
23.506050 -22.522219 71.440773 0.000978 0.000978 0.999999 
-40.552742 -37.806862 118.245979 -0.586138 0.810210 0.001366 
-39.465164 -37.302814 90.088600 -0.240583 0.970628 0.001185 
-36.910339 -42.992847 88.339310 0.566240 -0.824239 0.001358 
-35.774662 -39.823044 58.272167 0.501282 0.034147 0.864610 
-38.137962 -43.227097 60.530117 0.039806 -0.498257 0.866115 
-40.847782 -38.181072 75.165146 -0.307703 0.396492 0.864935 
-39.231457 -37.682369 119.673988 -0.036926 0.499184 0.865709 
-37.612465 -42.684681 123.017982 0.147309 -0.479849 0.864896 
-38.744064 -42.791740 74.748161 -0.074250 -0.497332 0.864377 
-35.821835 -40.374603 61.602501 0.497412 0.062699 -0.865246 
-37.841835 -37.594082 73.315269 0.086156 0.492925 -0.865796 
-40.939919 -38.324692 91.398560 -0.405681 0.295459 -0.864943 
-41.653454 -40.973183 94.110580 -0.475910 -0.156684 -0.865424 
-41.581612 -40.166710 96.524834 -0.499009 -0.028554 -0.866127 
-37.290062 -37.778343 112.667542 0.185365 0.467121 -0.864545 
-36.200108 -42.127972 118.741089 0.436792 -0.243334 -0.866026 
-38.414612 -42.848640 80.140533 0.119130 -0.486566 -0.865484 
-37.973450 -37.983097 81.967346 0.077330 0.496318 -0.864690 
-36.484375 -41.407619 93.021294 0.477180 -0.153223 -0.865345 
-40.749462 -38.859241 120.350174 -0.433694 0.249336 -0.865876 
-40.168362 -42.603138 127.089516 -0.217473 -0.451444 -0.865392 
-37.619396 -42.460430 58.509949 0.462431 -0.886654 0.001317 
-36.352642 -40.416073 85.267830 0.999889 -0.014894 0.000993 
-40.802925 -41.392250 107.718925 -0.900850 -0.434129 0.001304 
-37.992485 -42.614830 116.805832 0.302950 -0.953006 0.001227 
-37.582340 -42.442223 123.287308 0.476155 -0.879361 0.001326 
-40.617126 -41.000580 55.740776 0.000978 0.000978 -0.999999 
-38.729542 -38.568089 55.740776 0.000978 0.000978 -0.999999 
-35.295845 -37.059280 133.175064 0.715359 0.698755 0.001384 
-34.185043 -41.816727 135.929657 0.952780 -0.303660 0.001229 
-41.142117 -38.051647 131.940781 0.000978 0.000978 -0.999999 
-41.081509 -39.191223 137.466400 0.999999 0.000978 0.000978 
-34.195393 -39.042793 137.863449 0.676744 0.202868 0.707716 
44.006256 -38.734936 88.710258 0.854638 0.519223 0.001342 
38.688931 -42.148163 81.689552 -0.827633 -0.561268 0.001359 
39.718197 -37.638325 63.631550 -0.200963 0.459983 0.864887 
43.195675 -42.749851 69.448601 0.265840 -0.426863 0.864359 
43.653252 -38.775105 69.850502 0.441464 0.233539 0.866354 
38.421982 -40.493980 80.521858 -0.499326 0.045393 0.865224 
43.214108 -38.276527 108.004066 0.382628 0.324235 0.865140 
44.164494 -40.186829 129.424530 0.500145 -0.031344 0.865374 
38.938301 -41.144527 131.605240 -0.494010 -0.089177 0.864871 
40.054909 -38.211506 130.054672 -0.185108 0.469435 0.863346 
43.547218 -41.463249 118.104202 0.418677 -0.272521 0.866281 
41.615612 -42.884140 89.944069 0.001334 -0.500299 0.865851 
40.894291 -38.032963 80.511902 -0.014851 0.500875 0.865392 
40.730320 -37.307949 65.918549 -0.143727 0.477639 -0.866720 
43.630199 -42.184555 72.952667 0.426085 -0.262323 -0.865817 
40.985737 -43.462063 76.645912 0.001336 -0.498295 -0.867007 
41.280987 -43.292583 77.814972 0.051074 -0.498313 -0.865491 
41.255161 -43.452572 100.767433 0.045393 -0.499326 -0.865224 
41.784031 -43.223114 123.562881 0.137841 -0.480268 -0.866223 
44.342739 -40.499069 131.543701 0.500316 0.039751 -0.864930 
38.608112 -40.908058 64.750679 -0.475910 -0.156684 -0.865424 
39.790871 -42.325901 93.934608 -0.246492 -0.440056 -0.863477 
43.099010 -41.925816 109.436523 0.421183 -0.272173 -0.865174 
41.200600 -37.939583 115.020500 -0.083235 0.495177 -0.864796 
41.731918 -42.673107 69.854301 0.186011 -0.982547 0.001141 
41.481468 -42.705498 130.742569 0.078785 -0.996891 0.001050 
45.942764 -41.286373 133.235321 0.981453 -0.191699 0.001148 
45.281277 -37.811394 134.899323 0.840077 0.542465 0.001353 
37.760265 -43.522488 134.248169 -0.747332 -0.664449 0.001381 
38.363064 -38.383072 131.940781 0.000978 0.000978 -0.999999 
42.802177 -36.493149 131.940781 0.000978 0.000978 -0.999999 
43.753189 -40.518459 138.012970 -0.703752 0.038232 0.709416 
40.880138 -42.857727 134.718903 0.000978 0.000978 0.999999 
37.050121 -41.535313 132.060898 -0.680805 -0.185953 -0.708467 
43.596001 41.802250 128.029434 0.726206 0.687475 0.001383 
38.349598 38.652885 80.444344 -0.489288 -0.104134 0.865883 
41.489216 42.556320 82.682060 0.085946 0.491722 0.866501 
38.424511 40.733967 84.120499 -0.443039 0.229780 0.866555 
43.624859 41.534363 85.012062 0.418328 0.275336 0.865559 
43.542656 38.179214 119.253006 0.384606 -0.320250 0.865747 
38.686035 40.322094 114.852646 -0.465471 0.191840 0.864022 
38.885979 40.699562 107.226929 -0.429236 0.256328 0.866056 
39.038345 38.489090 104.936516 -0.471658 -0.168974 0.865440 
42.075375 37.149841 100.110054 0.086036 -0.495059 0.864589 
39.335094 38.306973 93.625694 -0.451148 -0.220328 0.864825 
40.662384 36.967880 79.602730 -0.175810 -0.471290 0.864278 
39.598480 37.549225 68.098572 -0.367120 -0.342543 0.864805 
41.516335 42.174667 65.116699 0.103877 0.488082 0.866594 
42.811852 37.519260 58.262150 0.233836 -0.445043 0.864440 
44.203465 39.503437 60.343361 0.499326 0.045393 -0.865224 
39.334560 41.817047 73.542755 -0.379236 0.330105 -0.864413 
43.847450 40.805309 80.712563 0.426422 0.259495 -0.866502 
38.154514 39.994522 89.050636 -0.501457 0.001337 -0.865181 
38.563725 38.144405 90.415619 -0.416560 -0.279233 -0.865163 
42.486679 42.334202 99.991150 0.144090 0.478844 -0.865995 
43.801594 38.131886 103.425316 0.455606 -0.210625 -0.864905 
41.794987 36.593998 114.778107 0.131626 -0.481663 -0.866415 
39.393822 41.863178 124.336792 -0.370160 0.339442 -0.864732 
38.376369 39.357914 128.334351 -0.491453 -0.103989 -0.864673 
39.653759 41.475338 60.569839 -0.382628 0.324235 -0.865140 
40.022068 37.387459 64.813843 -0.185365 -0.467121 -0.864545 
43.750137 40.585545 75.518982 0.438407 0.239542 -0.866268 
42.773277 41.899456 104.895065 0.214321 0.454121 -0.864778 
41.322872 41.994152 111.157547 -0.062612 0.499505 -0.864046 
43.551094 40.692410 114.819145 0.421530 0.269353 -0.865887 
44.013977 39.485085 118.656097 0.500316 0.039751 -0.864930 
42.792831 41.431023 88.102715 0.637877 0.770137 0.001378 
43.334057 40.797394 89.210236 0.865851 0.500299 0.001334 
44.609661 41.125202 131.940781 0.000978 0.000978 -0.999999 
45.583263 40.973537 138.063400 0.671836 0.213553 0.709247 
41.492191 37.038601 64.076424 -0.101169 0.491597 0.864926 
40.824726 42.233326 65.520081 0.023087 -0.501117 -0.865072 
40.563023 42.661846 63.984409 0.062699 -0.497412 -0.865246 
46.295914 36.089848 67.378807 0.500299 -0.865851 0.001334 
37.972488 35.126293 67.472618 -0.500299 -0.865851 0.001334 
37.738449 35.261417 66.146263 -0.500299 -0.865851 0.001334 
-40.926556 38.622860 67.549744 0.425145 0.269716 0.864005 
-35.840790 40.000172 64.575714 -0.485237 -0.125269 0.865363 
-33.144009 41.530487 67.045303 0.999999 0.000978 0.000978 
-41.814529 36.640686 62.106651 0.000978 0.000978 -0.999999 
-35.605415 40.142231 62.519844 -0.697729 -0.117528 -0.706655 
-44.159901 42.860790 67.981094 -0.431706 0.255994 0.864926 
-36.009155 -39.766014 66.419083 -0.498382 -0.048320 -0.865610 
-35.518372 -44.957630 65.096596 0.500299 -0.865851 0.001334 
-36.199333 -45.350780 63.442013 0.500299 -0.865851 0.001334 
-39.089954 -46.569706 63.931175 -0.500299 -0.865851 0.001334 
-35.912319 -37.582115 68.440773 0.000978 0.000978 0.999999 
-43.495396 -40.381924 62.187496 -0.999999 0.000978 0.000978 
46.855991 -37.828251 65.595146 0.999999 0.000978 0.000978 
45.224762 -44.528580 67.246468 0.500299 -0.865851 0.001334 
39.993546 -46.040565 67.925301 -0.500299 -0.865851 0.001334 
38.834263 -35.386528 65.990494 -0.500299 0.865851 0.001334 
38.497967 -38.918331 64.010284 0.887734 -0.460355 0.001319 
39.901035 -45.847446 68.387421 -0.122433 -0.485410 0.865672 
43.170288 -39.394512 1.046919 -0.982047 -0.188635 0.001143 
37.286610 -38.243126 2.801434 0.838844 -0.544370 0.001351 
-46.816681 46.227474 0.042210 -0.207497 0.183708 -0.960831 
49.809032 -38.864403 0.425727 0.815569 0.001362 -0.578659 
49.069698 -25.834114 0.009176 0.072063 0.001044 -0.997400 
47.406429 -46.605011 0.864719 0.739828 -0.658792 -0.136560 
17.996054 50.000000 2.306160 0.000978 0.999999 0.000978 
8.794374 50.000000 2.760154 0.000978 0.999999 0.000978 
-50.000000 27.929840 2.507769 -0.999999 0.000978 0.000978 
-50.000000 -0.803329 2.304509 -0.999999 0.000978 0.000978 
21.773396 -27.632109 0.000000 0.000978 0.000978 -0.999999 
42.861740 -34.610394 0.000000 0.000978 0.000978 -0.999999 
43.285603 -40.253941 0.000000 0.000978 0.000978 -0.999999 
33.854584 -36.842171 0.000000 0.000978 0.000978 -0.999999 
-27.386990 -29.674391 0.000000 0.000978 0.000978 -0.999999 
-28.615379 -23.668358 0.000000 0.000978 0.000978 -0.999999 
-38.465546 -33.413010 0.000000 0.000978 0.000978 -0.999999 
-34.769444 -24.663139 0.000000 0.000978 0.000978 -0.999999 
-35.342602 -37.645241 0.000000 0.000978 0.000978 -0.999999 
-43.724873 -45.437065 0.000000 0.000978 0.000978 -0.999999 
-43.042767 -47.969921 0.000000 0.000978 0.000978 -0.999999 
-41.422546 -46.433632 0.000000 0.000978 0.000978 -0.999999 
34.908249 27.122082 0.000000 0.000978 0.000978 -0.999999 
32.513599 22.472795 0.000000 0.000978 0.000978 -0.999999 
37.870041 16.275993 0.000000 0.000978 0.000978 -0.999999 
41.510921 23.291363 0.000000 0.000978 0.000978 -0.999999 
44.095879 14.410762 0.000000 0.000978 0.000978 -0.999999 
44.728931 6.979000 0.000000 0.000978 0.000978 -0.999999 
43.896854 16.112251 0.000000 0.000978 0.000978 -0.999999 
35.093872 9.656923 0.000000 0.000978 0.000978 -0.999999 
38.370697 6.307316 0.000000 0.000978 0.000978 -0.999999 
47.356728 21.892138 0.000000 0.000978 0.000978 -0.999999 
45.888992 -25.791748 0.000000 0.000978 0.000978 -0.999999 
44.183777 -7.946167 0.000000 0.000978 0.000978 -0.999999 
45.063538 45.460663 0.000000 0.000978 0.000978 -0.999999 
41.993919 44.648582 0.000000 0.000978 0.000978 -0.999999 
35.702450 46.090981 0.000000 0.000978 0.000978 -0.999999 
14.273790 36.761497 0.000000 0.000978 0.000978 -0.999999 
11.271791 30.251875 0.000000 0.000978 0.000978 -0.999999 
-1.493851 34.687080 0.000000 0.000978 0.000978 -0.999999 
-13.845037 42.634041 0.000000 0.000978 0.000978 -0.999999 
15.309005 44.780151 0.000000 0.000978 0.000978 -0.999999 
2.617752 46.666584 0.000000 0.000978 0.000978 -0.999999 
-18.259377 42.397995 0.000000 0.000978 0.000978 -0.999999 
-4.112932 40.793251 0.000000 0.000978 0.000978 -0.999999 
-20.943241 32.901741 0.000000 0.000978 0.000978 -0.999999 
12.987076 40.837917 0.000000 0.000978 0.000978 -0.999999 
22.025192 47.694885 0.000000 0.000978 0.000978 -0.999999 
20.483719 47.787861 0.000000 0.000978 0.000978 -0.999999 
-33.948891 42.526718 0.000000 0.000978 0.000978 -0.999999 
31.841665 35.112064 0.000000 0.000978 0.000978 -0.999999 
-34.739609 24.828259 0.000000 0.000978 0.000978 -0.999999 
-40.557152 25.992678 0.000000 0.000978 0.000978 -0.999999 
-33.550785 -0.398399 0.000000 0.000978 0.000978 -0.999999 
-41.154797 24.867239 0.000000 0.000978 0.000978 -0.999999 
-34.358601 12.439177 0.000000 0.000978 0.000978 -0.999999 
-30.091988 -15.849880 0.000000 0.000978 0.000978 -0.999999 
-47.674812 26.676964 0.000000 0.000978 0.000978 -0.999999 
-44.188126 4.969341 0.000000 0.000978 0.000978 -0.999999 
-48.158611 -15.350311 0.000000 0.000978 0.000978 -0.999999 
-34.902386 -24.329439 0.000000 0.000978 0.000978 -0.999999 
-39.859177 -6.927269 0.000000 0.000978 0.000978 -0.999999 
-40.120808 -8.102537 0.000000 0.000978 0.000978 -0.999999 
-39.151497 -10.257551 0.000000 0.000978 0.000978 -0.999999 
-47.489292 -32.699718 0.000000 0.000978 0.000978 -0.999999 
-41.739342 -26.106476 0.000000 0.000978 0.000978 -0.999999 
-38.273830 -3.775832 0.000000 0.000978 0.000978 -0.999999 
10.019425 -34.476772 0.000000 0.000978 0.000978 -0.999999 
19.683304 -37.623730 0.000000 0.000978 0.000978 -0.999999 
-1.842192 -32.622570 0.000000 0.000978 0.000978 -0.999999 
-4.492329 -32.334873 0.000000 0.000978 0.000978 -0.999999 
4.360050 -42.648277 0.000000 0.000978 0.000978 -0.999999 
-18.211039 -31.258293 0.000000 0.000978 0.000978 -0.999999 
-18.156311 -34.889622 0.000000 0.000978 0.000978 -0.999999 
-28.507135 -43.780807 0.000000 0.000978 0.000978 -0.999999 
16.335665 -42.356785 0.000000 0.000978 0.000978 -0.999999 
-11.761734 -38.950043 0.000000 0.000978 0.000978 -0.999999 
-23.457272 -45.842525 0.000000 0.000978 0.000978 -0.999999 
9.488799 -42.548389 0.000000 0.000978 0.000978 -0.999999 
-25.565369 -47.650837 0.000000 0.000978 0.000978 -0.999999 
-23.266342 23.948694 0.000000 0.000978 0.000978 -0.999999 
-21.184349 21.054951 0.000000 0.000978 0.000978 -0.999999 
-6.648966 9.015702 0.000000 0.000978 0.000978 -0.999999 
15.997222 20.982687 0.000000 0.000978 0.000978 -0.999999 
12.336370 8.909865 0.000000 0.000978 0.000978 -0.999999 
21.292995 -22.979717 0.000000 0.000978 0.000978 -0.999999 
17.093113 -19.799524 0.000000 0.000978 0.000978 -0.999999 
-2.507795 -4.639291 0.000000 0.000978 0.000978 -0.999999 
-3.759448 -7.876558 0.000000 0.000978 0.000978 -0.999999 
-8.805583 -8.156531 0.000000 0.000978 0.000978 -0.999999 
-20.401598 -19.290527 0.000000 0.000978 0.000978 -0.999999 
35.270851 -2.030584 0.000000 0.000978 0.000978 -0.999999 
39.067799 -18.600483 0.000000 0.000978 0.000978 -0.999999 
30.039333 6.849571 0.000000 0.000978 0.000978 -0.999999 
40.570679 -27.166363 0.000000 0.000978 0.000978 -0.999999 
-2.782569 1.217539 0.000000 0.000978 0.000978 -0.999999 
21.126970 28.753338 0.606153 -0.865181 -0.501457 0.001337 
4.406094 9.406094 1.217334 -0.707106 0.707106 0.001384 
20.233871 25.233871 0.531932 -0.707106 0.707106 0.001384 
16.698929 -30.000000 1.284204 0.000978 0.999999 0.000978 
1.719117 -6.730436 1.431818 -0.690311 -0.723512 0.001383 
9.150407 -4.150407 0.630626 0.707106 0.707106 0.001384 
13.035130 -8.035130 0.199365 0.707106 0.707106 0.001384 
6.251365 -0.962454 1.454265 0.921514 0.388343 0.001282 
25.845140 20.818871 0.032024 0.665988 -0.745961 0.001379 
30.000000 -9.211846 2.390589 -0.999999 0.000978 0.000978 
30.000000 -6.190459 0.053298 -0.999999 0.000978 0.000978 
28.700752 -21.149929 2.584913 -0.481358 0.876523 0.001326 
-30.000000 -12.622996 1.166571 0.999999 0.000978 0.000978 
-25.559956 -20.559956 2.640410 -0.707106 0.707106 0.001384 
-12.947157 -7.947157 1.752654 -0.707106 0.707106 0.001384 
-29.346441 -27.587881 2.941199 -0.262509 -0.964929 0.001199 
27.999929 -31.465023 0.213037 0.806665 0.591008 0.001365 
-5.835083 -50.000000 1.456509 0.000978 -0.999999 0.000978 
5.152973 -50.000000 2.270539 0.000978 -0.999999 0.000978 
37.566784 -50.000000 2.392045 0.000978 -0.999999 0.000978 
44.102760 -49.031906 2.631375 0.413217 -0.910632 0.001295 
50.000000 -28.720572 1.004124 0.999999 0.000978 0.000978 
50.000000 37.744381 2.629277 0.999999 0.000978 0.000978 
31.012379 -40.600555 3.000000 0.000978 0.000978 0.999999 
23.281839 -32.658657 3.000000 0.000978 0.000978 0.999999 
40.251434 -31.331251 3.000000 0.000978 0.000978 0.999999 
33.771557 -31.199011 3.000000 0.000978 0.000978 0.999999 
-42.149368 -44.150120 3.000000 0.000978 0.000978 0.999999 
-37.055141 -29.609512 3.000000 0.000978 0.000978 0.999999 
-32.300369 -25.179159 3.000000 0.000978 0.000978 0.999999 
-29.555670 -21.426537 3.000000 0.000978 0.000978 0.999999 
-35.991978 -42.014114 3.000000 0.000978 0.000978 0.999999 
43.313210 35.132004 3.000000 0.000978 0.000978 0.999999 
31.939278 -8.033928 3.000000 0.000978 0.000978 0.999999 
33.394855 19.976536 3.000000 0.000978 0.000978 0.999999 
43.821735 29.681681 3.000000 0.000978 0.000978 0.999999 
37.818924 25.769638 3.000000 0.000978 0.000978 0.999999 
41.541916 -21.473244 3.000000 0.000978 0.000978 0.999999 
38.572567 -15.717304 3.000000 0.000978 0.000978 0.999999 
46.446846 -26.066444 3.000000 0.000978 0.000978 0.999999 
49.042301 -32.007984 3.000000 0.000978 0.000978 0.999999 
43.857071 -24.877171 3.000000 0.000978 0.000978 0.999999 
39.193287 -16.876139 3.000000 0.000978 0.000978 0.999999 
46.518616 -14.084503 3.000000 0.000978 0.000978 0.999999 
44.463230 -15.186384 3.000000 0.000978 0.000978 0.999999 
48.338840 -2.914936 3.000000 0.000978 0.000978 0.999999 
47.161400 -5.969254 3.000000 0.000978 0.000978 0.999999 
35.621681 41.599506 3.000000 0.000978 0.000978 0.999999 
-0.097851 34.765953 3.000000 0.000978 0.000978 0.999999 
14.515092 31.200974 3.000000 0.000978 0.000978 0.999999 
29.513763 44.820572 3.000000 0.000978 0.000978 0.999999 
8.735336 39.237732 3.000000 0.000978 0.000978 0.999999 
25.075100 44.911999 3.000000 0.000978 0.000978 0.999999 
-24.464611 35.713566 3.000000 0.000978 0.000978 0.999999 
-12.592457 33.963661 3.000000 0.000978 0.000978 0.999999 
6.485324 49.794422 3.000000 0.000978 0.000978 0.999999 
-7.055838 46.883575 3.000000 0.000978 0.000978 0.999999 
12.250127 45.015984 3.000000 0.000978 0.000978 0.999999 
-12.229988 48.909637 3.000000 0.000978 0.000978 0.999999 
-2.504715 44.012440 3.000000 0.000978 0.000978 0.999999 
-32.763229 44.841480 3.000000 0.000978 0.000978 0.999999 
-22.227371 38.029678 3.000000 0.000978 0.000978 0.999999 
0.522251 46.483757 3.000000 0.000978 0.000978 0.999999 
-27.495794 37.137230 3.000000 0.000978 0.000978 0.999999 
-40.672405 44.731148 3.000000 0.000978 0.000978 0.999999 
-33.500690 24.516727 3.000000 0.000978 0.000978 0.999999 
40.047241 45.065010 3.000000 0.000978 0.000978 0.999999 
-39.045265 -7.428808 3.000000 0.000978 0.000978 0.999999 
-49.112659 35.202076 3.000000 0.000978 0.000978 0.999999 
-47.393860 11.022100 3.000000 0.000978 0.000978 0.999999 
-46.060360 -4.925214 3.000000 0.000978 0.000978 0.999999 
-46.786144 -26.991146 3.000000 0.000978 0.000978 0.999999 
-45.462891 23.902193 3.000000 0.000978 0.000978 0.999999 
-41.975410 17.149750 3.000000 0.000978 0.000978 0.999999 
-39.919472 -8.626702 3.000000 0.000978 0.000978 0.999999 
-47.219090 24.055824 3.000000 0.000978 0.000978 0.999999 
-39.748951 18.846794 3.000000 0.000978 0.000978 0.999999 
-31.480919 14.948830 3.000000 0.000978 0.000978 0.999999 
-41.011932 -18.412479 3.000000 0.000978 0.000978 0.999999 
-45.227425 -31.236279 3.000000 0.000978 0.000978 0.999999 
-40.707626 -15.190563 3.000000 0.000978 0.000978 0.999999 
-37.246449 -12.139460 3.000000 0.000978 0.000978 0.999999 
-42.268906 -24.180763 3.000000 0.000978 0.000978 0.999999 
0.033338 -42.786911 3.000000 0.000978 0.000978 0.999999 
-14.575270 -33.650581 3.000000 0.000978 0.000978 0.999999 
-16.069786 -35.993698 3.000000 0.000978 0.000978 0.999999 
0.682753 -43.307690 3.000000 0.000978 0.000978 0.999999 
24.146231 -46.044392 3.000000 0.000978 0.000978 0.999999 
30.498623 -47.392887 3.000000 0.000978 0.000978 0.999999 
-15.617556 -45.434052 3.000000 0.000978 0.000978 0.999999 
-25.578402 -36.805935 3.000000 0.000978 0.000978 0.999999 
-6.498051 -45.944195 3.000000 0.000978 0.000978 0.999999 
9.724154 -45.075226 3.000000 0.000978 0.000978 0.999999 
-14.699055 -41.544304 3.000000 0.000978 0.000978 0.999999 
17.517323 -35.861130 3.000000 0.000978 0.000978 0.999999 
3.144955 -37.262604 3.000000 0.000978 0.000978 0.999999 
22.227943 -40.185814 3.000000 0.000978 0.000978 0.999999 
21.857164 -37.474693 3.000000 0.000978 0.000978 0.999999 
23.797176 -43.858288 3.000000 0.000978 0.000978 0.999999 
-11.623615 -7.754997 3.000000 0.000978 0.000978 0.999999 
-7.549882 -7.350920 3.000000 0.000978 0.000978 0.999999 
0.102532 -3.398959 3.000000 0.000978 0.000978 0.999999 
6.354266 -5.351493 3.000000 0.000978 0.000978 0.999999 
19.991705 -18.331333 3.000000 0.000978 0.000978 0.999999 
-22.177565 18.698519 3.000000 0.000978 0.000978 0.999999 
-7.962122 7.205673 3.000000 0.000978 0.000978 0.999999 
4.567954 3.887369 3.000000 0.000978 0.000978 0.999999 
-5.483189 0.192965 3.000000 0.000978 0.000978 0.999999 
31.152245 25.435459 3.000000 0.000978 0.000978 0.999999 
28.759386 25.114914 3.000000 0.000978 0.000978 0.999999 
12.436324 16.984739 3.000000 0.000978 0.000978 0.999999 
20.356079 16.907492 3.000000 0.000978 0.000978 0.999999 
-29.220289 -28.388857 42.479866 -0.684630 0.728889 0.001383 
-23.986271 -31.516066 16.544308 0.966452 -0.256844 0.001195 
-26.733067 -33.835560 7.420559 0.101947 -0.994789 0.001073 
-24.177851 -31.986757 -2.596552 0.913437 -0.406977 0.001292 
-24.544359 -31.955585 5.352168 0.418677 -0.272521 0.866281 
-26.095282 -27.821291 14.463112 0.210911 0.453234 0.866081 
-24.005205 -31.159376 15.420863 0.485092 -0.131771 0.864478 
