ply
format ascii 1.0
comment Created by CloudCompare v2.12.0 (Kyiv)
comment Created 2023-02-04T20:19:12
obj_info Generated by CloudCompare!
element vertex 806
property float x
property float y
property float z
property float nx
property float ny
property float nz
end_header
-38.586361 -4.241500 68.440773 0.000978 0.000978 -0.999999 
-46.035294 23.346781 68.440773 0.000978 0.000978 -0.999999 
-41.959137 5.032352 68.440773 0.000978 0.000978 -0.999999 
-36.602558 -2.994829 68.440773 0.000978 0.000978 -0.999999 
-39.802498 -3.581291 68.440773 0.000978 0.000978 -0.999999 
-35.792191 13.948177 68.440773 0.000978 0.000978 -0.999999 
-37.645309 17.262241 68.440773 0.000978 0.000978 -0.999999 
-39.608513 -5.925508 68.440773 0.000978 0.000978 -0.999999 
-32.054569 17.312859 68.440773 0.000978 0.000978 -0.999999 
-45.981976 25.984818 68.440773 0.000978 0.000978 -0.999999 
-35.321323 24.599607 68.440773 0.000978 0.000978 -0.999999 
-45.854218 3.507230 68.440773 0.000978 0.000978 -0.999999 
-42.153046 29.020153 68.440773 0.000978 0.000978 -0.999999 
-47.550655 -31.216827 68.440773 0.000978 0.000978 -0.999999 
-41.721821 -17.962994 68.440773 0.000978 0.000978 -0.999999 
-42.552971 12.612966 68.440773 0.000978 0.000978 -0.999999 
-46.933674 7.615876 68.440773 0.000978 0.000978 -0.999999 
-37.445354 18.355244 68.440773 0.000978 0.000978 -0.999999 
-45.929447 -10.421807 68.440773 0.000978 0.000978 -0.999999 
-43.767937 -7.750893 68.440773 0.000978 0.000978 -0.999999 
-43.776669 22.116905 68.440773 0.000978 0.000978 -0.999999 
-40.701630 -0.408207 68.440773 0.000978 0.000978 -0.999999 
-35.912796 5.839515 68.440773 0.000978 0.000978 -0.999999 
-39.102310 -10.986227 68.440773 0.000978 0.000978 -0.999999 
-39.153496 19.589760 68.440773 0.000978 0.000978 -0.999999 
-30.073490 19.769796 68.440773 0.000978 0.000978 -0.999999 
-35.602158 2.506847 68.440773 0.000978 0.000978 -0.999999 
-43.208481 -22.811365 68.440773 0.000978 0.000978 -0.999999 
-39.784336 26.886074 68.440773 0.000978 0.000978 -0.999999 
-44.451477 12.185938 68.440773 0.000978 0.000978 -0.999999 
-37.533203 23.996010 68.440773 0.000978 0.000978 -0.999999 
-43.108761 6.801278 68.440773 0.000978 0.000978 -0.999999 
-46.244087 15.281748 68.440773 0.000978 0.000978 -0.999999 
-43.250782 0.912870 68.440773 0.000978 0.000978 -0.999999 
-33.468071 19.996193 68.440773 0.000978 0.000978 -0.999999 
-43.270790 29.159180 68.440773 0.000978 0.000978 -0.999999 
-39.680912 8.531505 68.440773 0.000978 0.000978 -0.999999 
-43.683525 15.722050 68.440773 0.000978 0.000978 -0.999999 
-40.666180 -9.172421 68.440773 0.000978 0.000978 -0.999999 
-42.626579 9.692540 68.440773 0.000978 0.000978 -0.999999 
27.621696 23.185949 68.440773 0.000978 0.000978 -0.999999 
28.451838 28.949579 68.440773 0.000978 0.000978 -0.999999 
28.953348 30.973064 68.440773 0.000978 0.000978 -0.999999 
28.514015 31.188740 68.440773 0.000978 0.000978 -0.999999 
4.409513 7.568586 68.440773 0.000978 0.000978 -0.999999 
20.445045 18.916882 68.440773 0.000978 0.000978 -0.999999 
24.364491 21.964279 68.440773 0.000978 0.000978 -0.999999 
13.530922 14.185024 68.440773 0.000978 0.000978 -0.999999 
21.119434 18.679512 68.440773 0.000978 0.000978 -0.999999 
15.968201 15.745602 68.440773 0.000978 0.000978 -0.999999 
16.833345 11.334070 68.440773 0.000978 0.000978 -0.999999 
10.576633 6.663326 68.440773 0.000978 0.000978 -0.999999 
18.733360 12.951294 68.440773 0.000978 0.000978 -0.999999 
8.027516 5.279496 68.440773 0.000978 0.000978 -0.999999 
5.575371 6.801896 68.440773 0.000978 0.000978 -0.999999 
13.131471 10.042057 68.440773 0.000978 0.000978 -0.999999 
5.332971 4.017597 68.440773 0.000978 0.000978 -0.999999 
7.517566 1.307961 68.440773 0.000978 0.000978 -0.999999 
3.672541 -4.472279 68.440773 0.000978 0.000978 -0.999999 
11.862674 -10.016019 68.440773 0.000978 0.000978 -0.999999 
7.031622 -6.362865 68.440773 0.000978 0.000978 -0.999999 
6.802360 -4.479009 68.440773 0.000978 0.000978 -0.999999 
7.062867 -6.478254 68.440773 0.000978 0.000978 -0.999999 
13.211061 -9.163742 68.440773 0.000978 0.000978 -0.999999 
12.390304 -9.306189 68.440773 0.000978 0.000978 -0.999999 
10.063594 -11.634203 68.440773 0.000978 0.000978 -0.999999 
5.799918 -9.181213 68.440773 0.000978 0.000978 -0.999999 
24.990797 -20.787525 68.440773 0.000978 0.000978 -0.999999 
9.911850 -13.265503 68.440773 0.000978 0.000978 -0.999999 
17.539856 -16.650759 68.440773 0.000978 0.000978 -0.999999 
14.844551 -18.254887 68.440773 0.000978 0.000978 -0.999999 
22.583477 -25.717915 68.440773 0.000978 0.000978 -0.999999 
27.091431 -22.535830 68.440773 0.000978 0.000978 -0.999999 
24.280239 -25.115946 68.440773 0.000978 0.000978 -0.999999 
27.631842 -22.556494 68.440773 0.000978 0.000978 -0.999999 
32.207588 -27.982771 68.440773 0.000978 0.000978 -0.999999 
-15.314998 -16.810535 68.440773 0.000978 0.000978 -0.999999 
-13.071199 -18.928894 68.440773 0.000978 0.000978 -0.999999 
-18.201340 -18.505665 68.440773 0.000978 0.000978 -0.999999 
-18.848511 -24.833803 68.440773 0.000978 0.000978 -0.999999 
-19.870611 -20.220932 68.440773 0.000978 0.000978 -0.999999 
-9.725308 -14.938819 68.440773 0.000978 0.000978 -0.999999 
-4.448321 -6.086523 68.440773 0.000978 0.000978 -0.999999 
-11.787919 -10.110001 68.440773 0.000978 0.000978 -0.999999 
-9.460522 -11.626043 68.440773 0.000978 0.000978 -0.999999 
-11.313791 -10.041958 68.440773 0.000978 0.000978 -0.999999 
-12.170037 -10.194619 68.440773 0.000978 0.000978 -0.999999 
-9.332889 -8.118887 68.440773 0.000978 0.000978 -0.999999 
-4.417842 -1.913126 68.440773 0.000978 0.000978 -0.999999 
-3.828949 1.185677 68.440773 0.000978 0.000978 -0.999999 
-2.985652 6.158496 68.440773 0.000978 0.000978 -0.999999 
-8.897270 4.938675 68.440773 0.000978 0.000978 -0.999999 
-6.733652 6.945810 68.440773 0.000978 0.000978 -0.999999 
-4.651241 4.225543 68.440773 0.000978 0.000978 -0.999999 
-9.550480 6.465400 68.440773 0.000978 0.000978 -0.999999 
-15.432991 14.124092 68.440773 0.000978 0.000978 -0.999999 
-18.185726 17.974237 68.440773 0.000978 0.000978 -0.999999 
-13.181048 14.972631 68.440773 0.000978 0.000978 -0.999999 
-18.070610 20.405304 68.440773 0.000978 0.000978 -0.999999 
-12.386232 14.760279 68.440773 0.000978 0.000978 -0.999999 
-9.364463 13.230264 68.440773 0.000978 0.000978 -0.999999 
-15.088217 16.506874 68.440773 0.000978 0.000978 -0.999999 
-16.845863 -34.595901 68.440773 0.000978 0.000978 -0.999999 
-6.586917 -38.498306 68.440773 0.000978 0.000978 -0.999999 
-18.172657 -34.253178 68.440773 0.000978 0.000978 -0.999999 
-20.944805 -41.325649 68.440773 0.000978 0.000978 -0.999999 
-33.642738 -45.049717 68.440773 0.000978 0.000978 -0.999999 
-10.201482 -36.063202 68.440773 0.000978 0.000978 -0.999999 
-13.863223 -32.215187 68.440773 0.000978 0.000978 -0.999999 
-26.337631 -43.787506 68.440773 0.000978 0.000978 -0.999999 
-20.900196 -41.305618 68.440773 0.000978 0.000978 -0.999999 
-20.055893 -40.915142 68.440773 0.000978 0.000978 -0.999999 
-4.724776 -36.964573 68.440773 0.000978 0.000978 -0.999999 
-4.130279 -38.132301 68.440773 0.000978 0.000978 -0.999999 
-26.896778 -43.328392 68.440773 0.000978 0.000978 -0.999999 
-4.964397 -36.673332 68.440773 0.000978 0.000978 -0.999999 
8.220083 -33.974094 68.440773 0.000978 0.000978 -0.999999 
9.516237 -32.884804 68.440773 0.000978 0.000978 -0.999999 
-1.214661 -32.246990 68.440773 0.000978 0.000978 -0.999999 
-31.775101 -43.365536 68.440773 0.000978 0.000978 -0.999999 
-8.127686 -38.359177 68.440773 0.000978 0.000978 -0.999999 
-1.929877 -32.429462 68.440773 0.000978 0.000978 -0.999999 
-16.638332 -30.412979 68.440773 0.000978 0.000978 -0.999999 
6.615659 -30.723505 68.440773 0.000978 0.000978 -0.999999 
7.448194 -33.296185 68.440773 0.000978 0.000978 -0.999999 
27.471880 -31.287779 68.440773 0.000978 0.000978 -0.999999 
28.272505 -31.235798 68.440773 0.000978 0.000978 -0.999999 
1.919411 -5.690611 68.440773 0.000978 0.000978 -0.999999 
1.366209 -3.603164 68.440773 0.000978 0.000978 -0.999999 
1.278042 -3.196315 68.440773 0.000978 0.000978 -0.999999 
1.749875 5.106209 68.440773 0.000978 0.000978 -0.999999 
31.299740 -4.383220 70.222061 -0.999999 0.000978 0.000978 
31.299740 -15.669530 69.085251 -0.999999 0.000978 0.000978 
31.299740 -18.223070 68.666138 -0.999999 0.000978 0.000978 
31.299740 -8.428700 70.282356 -0.999999 0.000978 0.000978 
31.299740 11.340399 68.488342 -0.999999 0.000978 0.000978 
31.299740 -14.181081 68.686928 -0.999999 0.000978 0.000978 
31.299740 16.544647 71.230682 -0.999999 0.000978 0.000978 
31.299740 12.593454 68.986267 -0.999999 0.000978 0.000978 
30.392616 -21.245321 69.890099 -0.642481 0.766300 0.001376 
31.019470 -20.461380 68.662376 -0.893111 0.449834 0.001311 
31.214918 -19.987640 70.393478 -0.965696 0.259673 0.001197 
14.675190 -8.754341 71.376488 0.707106 0.707106 0.001384 
14.721549 -8.800700 70.767998 0.707106 0.707106 0.001384 
17.929441 -12.008593 70.524162 0.707106 0.707106 0.001384 
23.956747 -18.035898 69.754822 0.707106 0.707106 0.001384 
25.296837 -19.375988 70.087936 0.707106 0.707106 0.001384 
14.234927 -8.314078 68.921677 0.707106 0.707106 0.001384 
25.270947 18.592316 70.621132 0.707106 -0.707106 0.001384 
16.401485 9.722856 70.672180 0.707106 -0.707106 0.001384 
26.133671 19.455040 70.298119 0.707106 -0.707106 0.001384 
17.067345 10.388716 69.351425 0.707106 -0.707106 0.001384 
14.108035 7.429406 69.185501 0.707106 -0.707106 0.001384 
-28.700260 13.394516 71.156296 0.999999 0.000978 0.000978 
-28.700260 7.583115 69.315491 0.999999 0.000978 0.000978 
-28.700260 5.413967 70.173462 0.999999 0.000978 0.000978 
-28.700260 -14.245847 70.807899 0.999999 0.000978 0.000978 
-28.700260 -11.903491 70.672989 0.999999 0.000978 0.000978 
-28.700260 1.110266 69.082031 0.999999 0.000978 0.000978 
-28.700260 0.410458 69.062416 0.999999 0.000978 0.000978 
-27.216890 20.847305 71.060104 0.410095 -0.912042 0.001294 
-28.358078 19.845018 68.907753 0.863341 -0.504619 0.001339 
-28.646166 18.996456 69.170731 0.986179 -0.165678 0.001127 
-16.822681 12.743528 70.511070 -0.707106 -0.707106 0.001384 
-11.564194 7.485042 70.584717 -0.707106 -0.707106 0.001384 
-16.572229 12.493077 69.564560 -0.707106 -0.707106 0.001384 
-11.532800 7.453649 69.043251 -0.707106 -0.707106 0.001384 
-20.156693 16.077539 69.473465 -0.707106 -0.707106 0.001384 
-5.216420 1.060975 71.239960 -0.814654 -0.579946 0.001365 
-16.444925 -13.123554 71.262962 -0.707106 0.707106 0.001384 
-10.236615 -6.915244 70.722260 -0.707106 0.707106 0.001384 
-20.584858 -17.263487 70.412048 -0.707106 0.707106 0.001384 
-10.025252 -6.703881 69.073494 -0.707106 0.707106 0.001384 
-10.419713 -7.098342 70.036942 -0.707106 0.707106 0.001384 
-28.581604 -20.071209 69.220512 0.955752 0.294171 0.001221 
-27.160540 -21.628424 69.341690 0.388343 0.921514 0.001282 
-25.757933 -21.785122 69.634117 -0.178585 0.983924 0.001137 
-17.008516 -23.687145 71.311668 0.707106 -0.707106 0.001384 
-10.436106 -17.114735 70.438690 0.707106 -0.707106 0.001384 
-17.934717 -24.613346 68.682739 0.707106 -0.707106 0.001384 
-10.049619 -16.728249 69.331581 0.707106 -0.707106 0.001384 
2.717160 -6.877826 69.646255 -0.570625 -0.821210 0.001362 
0.144167 -6.710247 70.866684 0.465583 -0.885003 0.001319 
-0.117630 -6.877788 71.292953 0.570625 -0.821210 0.001362 
9.089230 -13.168379 71.309921 -0.707106 -0.707106 0.001384 
12.080037 -16.159187 70.653015 -0.707106 -0.707106 0.001384 
19.422991 -23.502140 69.770035 -0.707106 -0.707106 0.001384 
8.518274 -12.597424 70.245079 -0.707106 -0.707106 0.001384 
10.523267 -14.602416 69.127953 -0.707106 -0.707106 0.001384 
4.601195 -8.680345 71.080902 -0.707106 -0.707106 0.001384 
8.006416 -30.378889 70.984299 0.000978 0.999999 0.000978 
-10.084324 -30.378889 70.013260 0.000978 0.999999 0.000978 
14.648094 -30.378889 71.069130 0.000978 0.999999 0.000978 
5.967764 -30.378889 70.935829 0.000978 0.999999 0.000978 
-15.934311 -30.378889 68.468643 0.000978 0.999999 0.000978 
20.217587 -30.378889 71.313438 0.000978 0.999999 0.000978 
-0.546621 -30.378889 69.028595 0.000978 0.999999 0.000978 
18.837679 -30.378889 69.108673 0.000978 0.999999 0.000978 
-19.357840 -29.703941 70.849007 0.680398 0.732842 0.001380 
-18.380182 -30.265368 70.032707 0.288352 0.957524 0.001217 
28.831358 29.861275 68.549019 0.995277 -0.097074 0.001067 
33.768612 29.857559 69.378075 -0.995480 -0.094960 0.001067 
-1.132283 -0.895231 70.015022 0.978191 0.207706 0.001160 
-0.610698 1.202945 69.578148 0.770137 -0.637877 0.001378 
29.090460 -29.235638 70.515396 0.887734 -0.460355 0.001319 
29.404203 -28.777636 71.350853 0.763803 -0.645448 0.001376 
33.406929 -29.053469 70.279129 -0.846097 -0.533028 0.001349 
33.506962 -31.527109 71.063148 -0.886654 0.462431 0.001317 
29.251089 -31.780602 70.426590 0.825507 0.564391 0.001360 
14.223040 29.621111 69.308769 0.000978 -0.999999 0.000978 
19.130835 29.621111 68.594826 0.000978 -0.999999 0.000978 
1.490118 29.621111 70.670029 0.000978 -0.999999 0.000978 
-12.281867 29.621111 70.596748 0.000978 -0.999999 0.000978 
-9.345709 29.621111 69.253563 0.000978 -0.999999 0.000978 
11.243483 29.621111 68.634102 0.000978 -0.999999 0.000978 
-12.667392 29.621111 68.994034 0.000978 -0.999999 0.000978 
19.168821 22.490192 71.336525 -0.707106 0.707106 0.001384 
10.601601 13.922972 69.699478 -0.707106 0.707106 0.001384 
6.852320 10.173691 69.045143 -0.707106 0.707106 0.001384 
20.395960 23.717331 68.546448 -0.707106 0.707106 0.001384 
18.399441 21.720814 69.278915 -0.707106 0.707106 0.001384 
-0.464198 6.385939 69.783356 0.705724 0.708486 0.001381 
-0.011198 6.038341 70.534988 0.526725 0.850035 0.001347 
-17.782892 23.703741 68.885887 0.707106 0.707106 0.001384 
-3.649833 9.570682 71.391159 0.707106 0.707106 0.001384 
-6.389593 12.310442 69.099808 0.707106 0.707106 0.001384 
-7.460118 13.380968 69.805679 0.707106 0.707106 0.001384 
-10.707450 16.628300 68.531578 0.707106 0.707106 0.001384 
-20.083094 27.741163 70.237129 0.968509 -0.248977 0.001191 
-20.122049 27.445269 70.054344 0.991428 -0.130653 0.001098 
-26.570919 30.917665 68.932030 -0.853912 -0.520416 0.001345 
-26.429628 30.616245 69.169655 -0.915238 -0.402911 0.001287 
-27.561071 27.410147 70.839790 -0.459279 0.888291 0.001316 
-26.972172 -28.580677 71.264702 -0.693136 -0.720806 0.001384 
-26.252651 -30.776836 69.152138 -0.987023 0.160574 0.001123 
-27.077415 -32.257858 68.538368 -0.654300 0.756234 0.001377 
-48.700260 32.163715 69.665817 -0.999999 0.000978 0.000978 
-48.700260 24.427692 69.987526 -0.999999 0.000978 0.000978 
-48.700260 12.791676 70.463028 -0.999999 0.000978 0.000978 
-48.700260 13.952085 70.524353 -0.999999 0.000978 0.000978 
-48.700260 -2.965950 69.661140 -0.999999 0.000978 0.000978 
-48.700260 -12.267733 70.412308 -0.999999 0.000978 0.000978 
-48.700260 -39.467506 70.117149 -0.999999 0.000978 0.000978 
-48.700260 -1.392292 70.957993 -0.999999 0.000978 0.000978 
-48.700260 -30.177670 70.866478 -0.999999 0.000978 0.000978 
-48.700260 -3.548786 70.643745 -0.999999 0.000978 0.000978 
-47.500973 -45.039795 69.747307 -0.883337 -0.468736 0.001320 
-11.411470 -50.378891 70.027565 0.000978 -0.999999 0.000978 
-20.624313 -50.378891 70.770340 0.000978 -0.999999 0.000978 
-1.391788 -50.378891 69.533226 0.000978 -0.999999 0.000978 
-14.762560 -50.378891 70.809471 0.000978 -0.999999 0.000978 
-9.152929 -50.378891 69.477112 0.000978 -0.999999 0.000978 
-3.912928 -50.378891 70.921593 0.000978 -0.999999 0.000978 
24.747383 -50.378891 71.328041 0.000978 -0.999999 0.000978 
-0.017797 -50.378891 70.980896 0.000978 -0.999999 0.000978 
26.566719 -50.378891 71.097504 0.000978 -0.999999 0.000978 
18.697353 -50.378891 70.059113 0.000978 -0.999999 0.000978 
-43.432068 -39.855156 71.440773 0.000978 0.000978 0.999999 
-33.142483 -24.552807 71.440773 0.000978 0.000978 0.999999 
-35.594582 -28.738480 71.440773 0.000978 0.000978 0.999999 
-39.063309 -32.438568 71.440773 0.000978 0.000978 0.999999 
-39.932198 -35.607452 71.440773 0.000978 0.000978 0.999999 
-30.711159 -26.287430 71.440773 0.000978 0.000978 0.999999 
-32.883503 -29.721279 71.440773 0.000978 0.000978 0.999999 
-28.864552 -21.562090 71.440773 0.000978 0.000978 0.999999 
-29.410927 -27.137293 71.440773 0.000978 0.000978 0.999999 
-27.285383 -22.278370 71.440773 0.000978 0.000978 0.999999 
-27.631805 -27.591858 71.440773 0.000978 0.000978 0.999999 
-26.165152 -26.085550 71.440773 0.000978 0.000978 0.999999 
-22.856968 -28.840679 71.440773 0.000978 0.000978 0.999999 
-21.035425 -30.622894 71.440773 0.000978 0.000978 0.999999 
-27.250729 -36.464130 71.440773 0.000978 0.000978 0.999999 
-34.626873 -41.188091 71.440773 0.000978 0.000978 0.999999 
-31.284775 -38.977245 71.440773 0.000978 0.000978 0.999999 
-29.251343 -38.230537 71.440773 0.000978 0.000978 0.999999 
-27.672947 -38.803051 71.440773 0.000978 0.000978 0.999999 
-21.802494 -33.689674 71.440773 0.000978 0.000978 0.999999 
-24.719015 -36.707222 71.440773 0.000978 0.000978 0.999999 
-35.222008 -35.539539 71.440773 0.000978 0.000978 0.999999 
-33.988377 -36.931248 71.440773 0.000978 0.000978 0.999999 
-29.206213 -34.153843 71.440773 0.000978 0.000978 0.999999 
-43.409748 -48.828518 71.440773 0.000978 0.000978 0.999999 
-43.302608 -47.909885 71.440773 0.000978 0.000978 0.999999 
-44.880917 -46.449673 71.440773 0.000978 0.000978 0.999999 
-42.559593 -42.897617 71.440773 0.000978 0.000978 0.999999 
-45.008507 -41.174908 71.440773 0.000978 0.000978 0.999999 
-42.460865 40.558422 71.440773 0.000978 0.000978 0.999999 
-45.637779 44.159180 71.440773 0.000978 0.000978 0.999999 
-43.813484 46.491924 71.440773 0.000978 0.000978 0.999999 
-39.913105 48.734348 71.440773 0.000978 0.000978 0.999999 
-33.175743 41.859039 71.440773 0.000978 0.000978 0.999999 
-21.856148 32.975800 71.440773 0.000978 0.000978 0.999999 
-36.505627 46.578224 71.440773 0.000978 0.000978 0.999999 
-35.893169 45.253052 71.440773 0.000978 0.000978 0.999999 
-31.677038 36.903206 71.440773 0.000978 0.000978 0.999999 
-28.383488 35.252831 71.440773 0.000978 0.000978 0.999999 
-26.674089 32.866215 71.440773 0.000978 0.000978 0.999999 
-20.660503 28.898499 71.440773 0.000978 0.000978 0.999999 
-26.074587 25.229406 71.440773 0.000978 0.000978 0.999999 
-24.373646 26.263634 71.440773 0.000978 0.000978 0.999999 
-29.428776 26.699360 71.440773 0.000978 0.000978 0.999999 
-29.440191 25.045481 71.440773 0.000978 0.000978 0.999999 
-29.229656 21.605835 71.440773 0.000978 0.000978 0.999999 
-29.926107 21.713961 71.440773 0.000978 0.000978 0.999999 
-32.384033 24.874298 71.440773 0.000978 0.000978 0.999999 
-38.881115 35.446613 71.440773 0.000978 0.000978 0.999999 
-43.152283 36.161781 71.440773 0.000978 0.000978 0.999999 
-43.317635 35.312977 71.440773 0.000978 0.000978 0.999999 
-36.187145 28.640024 71.440773 0.000978 0.000978 0.999999 
-41.965454 34.764091 71.440773 0.000978 0.000978 0.999999 
-43.155128 38.285732 71.440773 0.000978 0.000978 0.999999 
-31.703327 36.337112 71.440773 0.000978 0.000978 0.999999 
-33.027195 36.536900 71.440773 0.000978 0.000978 0.999999 
-33.464195 33.409382 71.440773 0.000978 0.000978 0.999999 
-34.983635 32.798092 71.440773 0.000978 0.000978 0.999999 
33.531170 -35.317196 71.440773 0.000978 0.000978 0.999999 
29.536129 -36.287529 71.440773 0.000978 0.000978 0.999999 
23.622047 -32.359070 71.440773 0.000978 0.000978 0.999999 
31.178682 -40.506756 71.440773 0.000978 0.000978 0.999999 
32.761024 -39.625000 71.440773 0.000978 0.000978 0.999999 
28.065376 -35.917179 71.440773 0.000978 0.000978 0.999999 
34.521370 -41.864162 71.440773 0.000978 0.000978 0.999999 
16.696926 -34.193020 71.440773 0.000978 0.000978 0.999999 
7.374973 -31.495255 71.440773 0.000978 0.000978 0.999999 
32.025291 -43.251728 71.440773 0.000978 0.000978 0.999999 
18.342342 -35.192142 71.440773 0.000978 0.000978 0.999999 
16.392681 -34.581997 71.440773 0.000978 0.000978 0.999999 
28.376217 -41.562119 71.440773 0.000978 0.000978 0.999999 
20.899094 -38.474663 71.440773 0.000978 0.000978 0.999999 
20.004274 -41.520374 71.440773 0.000978 0.000978 0.999999 
1.601147 -36.782120 71.440773 0.000978 0.000978 0.999999 
18.451702 -35.658794 71.440773 0.000978 0.000978 0.999999 
27.435131 -41.467186 71.440773 0.000978 0.000978 0.999999 
-9.239105 -32.442375 71.440773 0.000978 0.000978 0.999999 
-0.963657 -36.014179 71.440773 0.000978 0.000978 0.999999 
-2.837528 -30.862961 71.440773 0.000978 0.000978 0.999999 
35.633877 -47.225361 71.440773 0.000978 0.000978 0.999999 
29.688602 -46.231407 71.440773 0.000978 0.000978 0.999999 
13.794192 -32.713196 71.440773 0.000978 0.000978 0.999999 
-1.643356 -30.985703 71.440773 0.000978 0.000978 0.999999 
27.669468 -44.029728 71.440773 0.000978 0.000978 0.999999 
-7.765480 -30.919786 71.440773 0.000978 0.000978 0.999999 
24.216806 -43.509117 71.440773 0.000978 0.000978 0.999999 
6.051416 -32.524475 71.440773 0.000978 0.000978 0.999999 
7.970303 -38.553055 71.440773 0.000978 0.000978 0.999999 
18.342205 -34.091496 71.440773 0.000978 0.000978 0.999999 
-4.934904 -42.986412 71.440773 0.000978 0.000978 0.999999 
17.329769 -46.595734 71.440773 0.000978 0.000978 0.999999 
-15.020971 -43.022400 71.440773 0.000978 0.000978 0.999999 
21.373581 -47.339539 71.440773 0.000978 0.000978 0.999999 
-1.889755 -49.241264 71.440773 0.000978 0.000978 0.999999 
-14.480881 -46.396023 71.440773 0.000978 0.000978 0.999999 
-3.894039 -48.563515 71.440773 0.000978 0.000978 0.999999 
8.780264 -43.594894 71.440773 0.000978 0.000978 0.999999 
-22.943048 -40.238270 71.440773 0.000978 0.000978 0.999999 
-16.781538 -42.960762 71.440773 0.000978 0.000978 0.999999 
-3.742229 -38.319366 71.440773 0.000978 0.000978 0.999999 
-6.742809 -48.048527 71.440773 0.000978 0.000978 0.999999 
4.761364 -48.165997 71.440773 0.000978 0.000978 0.999999 
-8.098833 -41.289078 71.440773 0.000978 0.000978 0.999999 
-13.810822 -37.753181 71.440773 0.000978 0.000978 0.999999 
28.841217 -48.542843 71.440773 0.000978 0.000978 0.999999 
-22.307457 -47.400879 71.440773 0.000978 0.000978 0.999999 
28.358366 -46.241158 71.440773 0.000978 0.000978 0.999999 
-8.373585 -49.980110 71.440773 0.000978 0.000978 0.999999 
-4.583557 -43.112240 71.440773 0.000978 0.000978 0.999999 
1.756490 -38.480473 71.440773 0.000978 0.000978 0.999999 
-5.878490 -36.507900 71.440773 0.000978 0.000978 0.999999 
14.268397 -42.626167 71.440773 0.000978 0.000978 0.999999 
-25.618256 -49.058842 71.440773 0.000978 0.000978 0.999999 
38.354881 -49.972439 71.440773 0.000978 0.000978 0.999999 
28.122837 -48.959229 71.440773 0.000978 0.000978 0.999999 
-28.357786 -42.090355 71.440773 0.000978 0.000978 0.999999 
0.904020 -44.695362 71.440773 0.000978 0.000978 0.999999 
-14.808258 -48.171265 71.440773 0.000978 0.000978 0.999999 
-32.583027 -50.147015 71.440773 0.000978 0.000978 0.999999 
-20.857790 -40.822815 71.440773 0.000978 0.000978 0.999999 
-35.351025 -50.206268 71.440773 0.000978 0.000978 0.999999 
4.278456 -47.594929 71.440773 0.000978 0.000978 0.999999 
-4.574242 -48.657944 71.440773 0.000978 0.000978 0.999999 
16.452684 -45.864388 71.440773 0.000978 0.000978 0.999999 
-22.611725 -46.037903 71.440773 0.000978 0.000978 0.999999 
4.133594 -42.986412 71.440773 0.000978 0.000978 0.999999 
-11.814512 -38.833973 71.440773 0.000978 0.000978 0.999999 
-18.699621 -33.499977 71.440773 0.000978 0.000978 0.999999 
6.395072 -39.149536 71.440773 0.000978 0.000978 0.999999 
-2.191776 -37.567741 71.440773 0.000978 0.000978 0.999999 
5.570741 -43.127892 71.440773 0.000978 0.000978 0.999999 
-22.139193 -35.762398 71.440773 0.000978 0.000978 0.999999 
-21.795340 -41.847019 71.440773 0.000978 0.000978 0.999999 
-22.869884 -39.830185 71.440773 0.000978 0.000978 0.999999 
-8.375042 -49.283783 71.440773 0.000978 0.000978 0.999999 
24.449896 -49.752800 71.440773 0.000978 0.000978 0.999999 
-15.192673 -36.987598 71.440773 0.000978 0.000978 0.999999 
-31.978653 -47.889793 71.440773 0.000978 0.000978 0.999999 
32.631004 -48.665424 71.440773 0.000978 0.000978 0.999999 
5.038374 -46.194794 71.440773 0.000978 0.000978 0.999999 
38.040905 -38.370148 71.440773 0.000978 0.000978 0.999999 
38.595783 -35.327335 71.440773 0.000978 0.000978 0.999999 
36.293594 -28.927443 71.440773 0.000978 0.000978 0.999999 
34.672482 -28.050398 71.440773 0.000978 0.000978 0.999999 
34.075363 -22.786213 71.440773 0.000978 0.000978 0.999999 
39.546383 -29.516087 71.440773 0.000978 0.000978 0.999999 
36.757690 -25.276896 71.440773 0.000978 0.000978 0.999999 
37.829475 -28.244020 71.440773 0.000978 0.000978 0.999999 
39.072632 -7.742521 71.440773 0.000978 0.000978 0.999999 
31.602888 -13.180765 71.440773 0.000978 0.000978 0.999999 
32.313038 -0.467056 71.440773 0.000978 0.000978 0.999999 
38.832775 -15.580051 71.440773 0.000978 0.000978 0.999999 
34.937366 5.998211 71.440773 0.000978 0.000978 0.999999 
35.432137 -10.557563 71.440773 0.000978 0.000978 0.999999 
41.319138 -20.199112 71.440773 0.000978 0.000978 0.999999 
36.952415 -1.200552 71.440773 0.000978 0.000978 0.999999 
39.652184 -19.734871 71.440773 0.000978 0.000978 0.999999 
34.064980 -11.388262 71.440773 0.000978 0.000978 0.999999 
46.465054 -28.697252 71.440773 0.000978 0.000978 0.999999 
37.090546 -12.340876 71.440773 0.000978 0.000978 0.999999 
35.387783 -22.506479 71.440773 0.000978 0.000978 0.999999 
34.138180 1.707775 71.440773 0.000978 0.000978 0.999999 
34.184731 -19.844757 71.440773 0.000978 0.000978 0.999999 
32.993286 -3.107950 71.440773 0.000978 0.000978 0.999999 
39.075077 -11.179552 71.440773 0.000978 0.000978 0.999999 
31.821480 -14.877144 71.440773 0.000978 0.000978 0.999999 
41.967213 -29.926207 71.440773 0.000978 0.000978 0.999999 
36.917416 -17.127659 71.440773 0.000978 0.000978 0.999999 
43.365154 -22.955355 71.440773 0.000978 0.000978 0.999999 
38.319580 -9.462830 71.440773 0.000978 0.000978 0.999999 
36.384556 -23.947016 71.440773 0.000978 0.000978 0.999999 
36.378235 -6.626940 71.440773 0.000978 0.000978 0.999999 
32.279999 -0.603975 71.440773 0.000978 0.000978 0.999999 
47.863609 35.323502 71.440773 0.000978 0.000978 0.999999 
47.984543 -24.112677 71.440773 0.000978 0.000978 0.999999 
44.972664 -0.719913 71.440773 0.000978 0.000978 0.999999 
47.494343 -20.732834 71.440773 0.000978 0.000978 0.999999 
49.461021 20.480145 71.440773 0.000978 0.000978 0.999999 
51.234726 -15.306947 71.440773 0.000978 0.000978 0.999999 
41.159584 14.539760 71.440773 0.000978 0.000978 0.999999 
34.228325 15.693318 71.440773 0.000978 0.000978 0.999999 
46.589020 5.886565 71.440773 0.000978 0.000978 0.999999 
47.414593 -10.936798 71.440773 0.000978 0.000978 0.999999 
48.295437 -30.126703 71.440773 0.000978 0.000978 0.999999 
46.415947 12.567363 71.440773 0.000978 0.000978 0.999999 
50.953323 25.677120 71.440773 0.000978 0.000978 0.999999 
46.194958 -7.729976 71.440773 0.000978 0.000978 0.999999 
44.181740 12.926098 71.440773 0.000978 0.000978 0.999999 
47.430523 -8.597856 71.440773 0.000978 0.000978 0.999999 
36.589390 22.789303 71.440773 0.000978 0.000978 0.999999 
40.304176 15.347982 71.440773 0.000978 0.000978 0.999999 
35.642273 10.957896 71.440773 0.000978 0.000978 0.999999 
49.433498 26.234659 71.440773 0.000978 0.000978 0.999999 
41.115231 21.361164 71.440773 0.000978 0.000978 0.999999 
40.720539 -0.619263 71.440773 0.000978 0.000978 0.999999 
47.282471 14.018011 71.440773 0.000978 0.000978 0.999999 
47.005146 -1.252919 71.440773 0.000978 0.000978 0.999999 
48.308727 17.903217 71.440773 0.000978 0.000978 0.999999 
50.365425 -27.105892 71.440773 0.000978 0.000978 0.999999 
45.292324 26.021206 71.440773 0.000978 0.000978 0.999999 
39.280361 15.356361 71.440773 0.000978 0.000978 0.999999 
46.592773 -24.867142 71.440773 0.000978 0.000978 0.999999 
42.236244 20.933308 71.440773 0.000978 0.000978 0.999999 
36.857304 5.595047 71.440773 0.000978 0.000978 0.999999 
44.406036 23.847298 71.440773 0.000978 0.000978 0.999999 
40.088924 14.044598 71.440773 0.000978 0.000978 0.999999 
38.684273 4.751691 71.440773 0.000978 0.000978 0.999999 
45.792774 23.210539 71.440773 0.000978 0.000978 0.999999 
44.097141 -15.098465 71.440773 0.000978 0.000978 0.999999 
46.570690 -11.208223 71.440773 0.000978 0.000978 0.999999 
50.723068 5.385518 71.440773 0.000978 0.000978 0.999999 
49.888851 9.789545 71.440773 0.000978 0.000978 0.999999 
45.544968 16.010014 71.440773 0.000978 0.000978 0.999999 
49.763973 -21.976700 71.440773 0.000978 0.000978 0.999999 
46.214615 -16.161301 71.440773 0.000978 0.000978 0.999999 
41.358616 19.055386 71.440773 0.000978 0.000978 0.999999 
45.573399 -22.227282 71.440773 0.000978 0.000978 0.999999 
46.236378 21.766865 71.440773 0.000978 0.000978 0.999999 
46.740898 6.319240 71.440773 0.000978 0.000978 0.999999 
47.713394 -12.145117 71.440773 0.000978 0.000978 0.999999 
43.497303 7.496763 71.440773 0.000978 0.000978 0.999999 
45.408360 -8.276217 71.440773 0.000978 0.000978 0.999999 
51.018658 -3.084592 71.440773 0.000978 0.000978 0.999999 
50.123405 17.730701 71.440773 0.000978 0.000978 0.999999 
45.385769 33.973763 71.440773 0.000978 0.000978 0.999999 
40.725723 30.786522 71.440773 0.000978 0.000978 0.999999 
40.780846 29.505020 71.440773 0.000978 0.000978 0.999999 
41.517315 31.886539 71.440773 0.000978 0.000978 0.999999 
45.466324 40.559219 71.440773 0.000978 0.000978 0.999999 
47.023556 42.039188 71.440773 0.000978 0.000978 0.999999 
46.481525 43.880024 71.440773 0.000978 0.000978 0.999999 
45.634434 46.302349 71.440773 0.000978 0.000978 0.999999 
43.277382 43.429043 71.440773 0.000978 0.000978 0.999999 
39.382797 42.378010 71.440773 0.000978 0.000978 0.999999 
38.798233 41.861549 71.440773 0.000978 0.000978 0.999999 
34.382603 41.691586 71.440773 0.000978 0.000978 0.999999 
34.682068 40.660435 71.440773 0.000978 0.000978 0.999999 
36.960552 41.201283 71.440773 0.000978 0.000978 0.999999 
37.086647 43.877304 71.440773 0.000978 0.000978 0.999999 
30.866770 35.391937 71.440773 0.000978 0.000978 0.999999 
29.406906 33.979721 71.440773 0.000978 0.000978 0.999999 
34.135597 36.893311 71.440773 0.000978 0.000978 0.999999 
27.491278 31.060133 71.440773 0.000978 0.000978 0.999999 
26.033648 29.986164 71.440773 0.000978 0.000978 0.999999 
25.500692 27.202511 71.440773 0.000978 0.000978 0.999999 
24.752258 25.793318 71.440773 0.000978 0.000978 0.999999 
28.537859 22.855604 71.440773 0.000978 0.000978 0.999999 
31.561337 26.765425 71.440773 0.000978 0.000978 0.999999 
31.282051 24.234138 71.440773 0.000978 0.000978 0.999999 
32.005596 27.064585 71.440773 0.000978 0.000978 0.999999 
32.541546 25.147707 71.440773 0.000978 0.000978 0.999999 
35.038666 27.997606 71.440773 0.000978 0.000978 0.999999 
39.216587 32.411617 71.440773 0.000978 0.000978 0.999999 
34.816261 26.572918 71.440773 0.000978 0.000978 0.999999 
46.997395 -39.919556 71.440773 0.000978 0.000978 0.999999 
49.527042 -41.746811 71.440773 0.000978 0.000978 0.999999 
47.634056 -45.211899 71.440773 0.000978 0.000978 0.999999 
44.038177 -44.218075 71.440773 0.000978 0.000978 0.999999 
44.726128 -49.538372 71.440773 0.000978 0.000978 0.999999 
41.997879 -50.001259 71.440773 0.000978 0.000978 0.999999 
40.040615 -46.441803 71.440773 0.000978 0.000978 0.999999 
37.197281 37.062298 71.440773 0.000978 0.000978 0.999999 
33.781979 31.923798 71.440773 0.000978 0.000978 0.999999 
40.780518 35.400928 71.440773 0.000978 0.000978 0.999999 
39.118134 36.344837 71.440773 0.000978 0.000978 0.999999 
3.131971 37.513020 71.440773 0.000978 0.000978 0.999999 
28.660536 46.623959 71.440773 0.000978 0.000978 0.999999 
-35.662189 48.594810 71.440773 0.000978 0.000978 0.999999 
9.264415 35.361725 71.440773 0.000978 0.000978 0.999999 
9.916100 45.719414 71.440773 0.000978 0.000978 0.999999 
-1.316031 39.568245 71.440773 0.000978 0.000978 0.999999 
-2.292579 39.368027 71.440773 0.000978 0.000978 0.999999 
4.119643 40.653942 71.440773 0.000978 0.000978 0.999999 
10.780177 46.035290 71.440773 0.000978 0.000978 0.999999 
33.582867 48.685486 71.440773 0.000978 0.000978 0.999999 
21.377523 31.964939 71.440773 0.000978 0.000978 0.999999 
24.018887 45.636787 71.440773 0.000978 0.000978 0.999999 
-9.863596 42.170910 71.440773 0.000978 0.000978 0.999999 
-16.020483 47.742580 71.440773 0.000978 0.000978 0.999999 
27.104853 43.862881 71.440773 0.000978 0.000978 0.999999 
0.538878 48.444149 71.440773 0.000978 0.000978 0.999999 
-14.051622 43.779716 71.440773 0.000978 0.000978 0.999999 
4.786541 44.267323 71.440773 0.000978 0.000978 0.999999 
10.624752 42.019295 71.440773 0.000978 0.000978 0.999999 
2.015259 40.163887 71.440773 0.000978 0.000978 0.999999 
16.212011 32.292030 71.440773 0.000978 0.000978 0.999999 
17.371761 39.220337 71.440773 0.000978 0.000978 0.999999 
-18.237316 45.399437 71.440773 0.000978 0.000978 0.999999 
-8.763282 48.171757 71.440773 0.000978 0.000978 0.999999 
11.798670 43.517155 71.440773 0.000978 0.000978 0.999999 
33.572193 49.576740 71.440773 0.000978 0.000978 0.999999 
2.380206 43.805286 71.440773 0.000978 0.000978 0.999999 
4.178998 43.320980 71.440773 0.000978 0.000978 0.999999 
-18.648712 46.678139 71.440773 0.000978 0.000978 0.999999 
20.918827 35.169758 71.440773 0.000978 0.000978 0.999999 
-13.257744 43.185295 71.440773 0.000978 0.000978 0.999999 
-19.587831 48.588108 71.440773 0.000978 0.000978 0.999999 
19.344620 37.830238 71.440773 0.000978 0.000978 0.999999 
24.700209 47.015888 71.440773 0.000978 0.000978 0.999999 
31.921860 45.306480 71.440773 0.000978 0.000978 0.999999 
-22.818996 46.573341 71.440773 0.000978 0.000978 0.999999 
9.001438 48.129597 71.440773 0.000978 0.000978 0.999999 
16.404835 47.192463 71.440773 0.000978 0.000978 0.999999 
-0.616367 40.744972 71.440773 0.000978 0.000978 0.999999 
-0.216420 45.001228 71.440773 0.000978 0.000978 0.999999 
12.879910 41.526546 71.440773 0.000978 0.000978 0.999999 
-1.444183 48.151711 71.440773 0.000978 0.000978 0.999999 
-7.578705 41.384926 71.440773 0.000978 0.000978 0.999999 
19.611458 46.228100 71.440773 0.000978 0.000978 0.999999 
-0.578956 47.530048 71.440773 0.000978 0.000978 0.999999 
9.703247 38.722202 71.440773 0.000978 0.000978 0.999999 
20.569069 44.303352 71.440773 0.000978 0.000978 0.999999 
-0.686409 40.867207 71.440773 0.000978 0.000978 0.999999 
10.508019 48.824062 71.440773 0.000978 0.000978 0.999999 
5.700896 45.204857 71.440773 0.000978 0.000978 0.999999 
-14.042598 46.696438 71.440773 0.000978 0.000978 0.999999 
22.576054 36.584816 71.440773 0.000978 0.000978 0.999999 
-27.679092 40.760269 71.440773 0.000978 0.000978 0.999999 
-18.671232 42.764832 71.440773 0.000978 0.000978 0.999999 
-19.179773 33.597809 71.440773 0.000978 0.000978 0.999999 
-18.777504 34.987980 71.440773 0.000978 0.000978 0.999999 
-21.324654 41.334209 71.440773 0.000978 0.000978 0.999999 
-6.027859 37.085442 71.440773 0.000978 0.000978 0.999999 
-27.769463 42.962124 71.440773 0.000978 0.000978 0.999999 
-18.001022 35.445267 71.440773 0.000978 0.000978 0.999999 
-16.517286 36.004265 71.440773 0.000978 0.000978 0.999999 
-9.443802 37.609364 71.440773 0.000978 0.000978 0.999999 
-29.619667 45.274094 71.440773 0.000978 0.000978 0.999999 
-33.023945 45.126534 71.440773 0.000978 0.000978 0.999999 
11.836897 31.356073 71.440773 0.000978 0.000978 0.999999 
-25.682409 39.085506 71.440773 0.000978 0.000978 0.999999 
-11.546513 36.482597 71.440773 0.000978 0.000978 0.999999 
-31.666664 44.393967 71.440773 0.000978 0.000978 0.999999 
-4.574827 31.881550 71.440773 0.000978 0.000978 0.999999 
-2.299621 35.295799 71.440773 0.000978 0.000978 0.999999 
-13.122875 38.721668 71.440773 0.000978 0.000978 0.999999 
-10.378084 39.839958 71.440773 0.000978 0.000978 0.999999 
7.757572 29.850325 71.440773 0.000978 0.000978 0.999999 
-31.814342 43.324463 71.440773 0.000978 0.000978 0.999999 
-19.529209 33.673550 71.440773 0.000978 0.000978 0.999999 
1.694790 30.699478 71.440773 0.000978 0.000978 0.999999 
-26.505821 44.897182 71.440773 0.000978 0.000978 0.999999 
-42.111259 10.884408 71.440773 0.000978 0.000978 0.999999 
-46.190041 -2.572339 71.440773 0.000978 0.000978 0.999999 
-44.065674 4.807945 71.440773 0.000978 0.000978 0.999999 
-46.903141 -18.853746 71.440773 0.000978 0.000978 0.999999 
-44.102802 9.656246 71.440773 0.000978 0.000978 0.999999 
-47.572304 12.159451 71.440773 0.000978 0.000978 0.999999 
-39.165844 25.916815 71.440773 0.000978 0.000978 0.999999 
-46.902874 -2.556285 71.440773 0.000978 0.000978 0.999999 
-37.566879 5.732035 71.440773 0.000978 0.000978 0.999999 
-37.449265 -5.363572 71.440773 0.000978 0.000978 0.999999 
-47.935970 23.269873 71.440773 0.000978 0.000978 0.999999 
-48.619427 -38.291893 71.440773 0.000978 0.000978 0.999999 
-48.517941 0.301605 71.440773 0.000978 0.000978 0.999999 
-41.894161 14.487623 71.440773 0.000978 0.000978 0.999999 
-39.527615 -6.831921 71.440773 0.000978 0.000978 0.999999 
-42.284332 6.600914 71.440773 0.000978 0.000978 0.999999 
-40.270546 3.426180 71.440773 0.000978 0.000978 0.999999 
-33.818390 12.333177 71.440773 0.000978 0.000978 0.999999 
-38.016899 17.658461 71.440773 0.000978 0.000978 0.999999 
-35.788143 20.369869 71.440773 0.000978 0.000978 0.999999 
-37.349609 22.288517 71.440773 0.000978 0.000978 0.999999 
-37.656250 2.176353 71.440773 0.000978 0.000978 0.999999 
-44.228218 11.352212 71.440773 0.000978 0.000978 0.999999 
-48.009769 -8.922563 71.440773 0.000978 0.000978 0.999999 
-43.770992 -17.162579 71.440773 0.000978 0.000978 0.999999 
-47.791950 28.159206 71.440773 0.000978 0.000978 0.999999 
-39.950600 17.268066 71.440773 0.000978 0.000978 0.999999 
-36.878372 11.128338 71.440773 0.000978 0.000978 0.999999 
-42.916309 8.650831 71.440773 0.000978 0.000978 0.999999 
-47.190323 -32.619045 71.440773 0.000978 0.000978 0.999999 
-44.748493 -27.414646 71.440773 0.000978 0.000978 0.999999 
-31.705282 13.035564 71.440773 0.000978 0.000978 0.999999 
-44.305279 32.950500 71.440773 0.000978 0.000978 0.999999 
-43.961552 -0.519554 71.440773 0.000978 0.000978 0.999999 
-31.184803 14.546667 71.440773 0.000978 0.000978 0.999999 
-39.505539 19.653439 71.440773 0.000978 0.000978 0.999999 
-44.143391 34.236374 71.440773 0.000978 0.000978 0.999999 
-40.114941 13.945318 71.440773 0.000978 0.000978 0.999999 
-40.088123 10.203472 71.440773 0.000978 0.000978 0.999999 
-36.094322 22.731911 71.440773 0.000978 0.000978 0.999999 
-43.666019 23.187637 71.440773 0.000978 0.000978 0.999999 
-38.026936 28.090946 71.440773 0.000978 0.000978 0.999999 
-47.237484 25.279125 71.440773 0.000978 0.000978 0.999999 
-33.102577 11.329552 71.440773 0.000978 0.000978 0.999999 
-38.343086 -6.189114 71.440773 0.000978 0.000978 0.999999 
-48.308769 28.957596 71.440773 0.000978 0.000978 0.999999 
-45.905144 30.337929 71.440773 0.000978 0.000978 0.999999 
-47.949303 -13.989616 71.440773 0.000978 0.000978 0.999999 
-48.357773 -6.314161 71.440773 0.000978 0.000978 0.999999 
-39.922070 0.538851 71.440773 0.000978 0.000978 0.999999 
-40.117596 24.765358 71.440773 0.000978 0.000978 0.999999 
-46.292999 -36.942322 71.440773 0.000978 0.000978 0.999999 
-38.140545 -23.081141 71.440773 0.000978 0.000978 0.999999 
-35.304909 -7.354740 71.440773 0.000978 0.000978 0.999999 
-30.557335 3.668753 71.440773 0.000978 0.000978 0.999999 
-35.293026 -22.546312 71.440773 0.000978 0.000978 0.999999 
-37.767872 -24.630594 71.440773 0.000978 0.000978 0.999999 
-35.188858 -13.745377 71.440773 0.000978 0.000978 0.999999 
-32.944798 -10.365682 71.440773 0.000978 0.000978 0.999999 
-34.658688 -11.770399 71.440773 0.000978 0.000978 0.999999 
-45.471790 -33.935467 71.440773 0.000978 0.000978 0.999999 
-34.550232 -15.616465 71.440773 0.000978 0.000978 0.999999 
-29.354382 -13.734793 71.440773 0.000978 0.000978 0.999999 
-36.967197 -10.882370 71.440773 0.000978 0.000978 0.999999 
-31.088511 -7.567148 71.440773 0.000978 0.000978 0.999999 
-40.072578 -24.781433 71.440773 0.000978 0.000978 0.999999 
-34.061142 1.766371 71.440773 0.000978 0.000978 0.999999 
-43.018288 -24.909695 71.440773 0.000978 0.000978 0.999999 
-31.855801 -3.097621 71.440773 0.000978 0.000978 0.999999 
-34.909115 -0.389140 71.440773 0.000978 0.000978 0.999999 
-35.914551 -4.019873 71.440773 0.000978 0.000978 0.999999 
-45.157692 -30.717619 71.440773 0.000978 0.000978 0.999999 
-38.195839 -25.517544 71.440773 0.000978 0.000978 0.999999 
-32.401085 -10.338583 71.440773 0.000978 0.000978 0.999999 
-29.180315 -11.033548 71.440773 0.000978 0.000978 0.999999 
-3.487129 8.979115 71.440773 0.000978 0.000978 0.999999 
-21.670374 21.773005 71.440773 0.000978 0.000978 0.999999 
-3.175516 8.701437 71.440773 0.000978 0.000978 0.999999 
-8.810519 12.480205 71.440773 0.000978 0.000978 0.999999 
-8.015160 11.198322 71.440773 0.000978 0.000978 0.999999 
-12.566103 17.334387 71.440773 0.000978 0.000978 0.999999 
-12.051064 9.730932 71.440773 0.000978 0.000978 0.999999 
-6.012132 4.884583 71.440773 0.000978 0.000978 0.999999 
-10.863914 8.015404 71.440773 0.000978 0.000978 0.999999 
-6.553954 4.682926 71.440773 0.000978 0.000978 0.999999 
-5.852093 3.607179 71.440773 0.000978 0.000978 0.999999 
-15.584520 12.338423 71.440773 0.000978 0.000978 0.999999 
-1.083361 4.963911 71.440773 0.000978 0.000978 0.999999 
-3.137715 -0.006331 71.440773 0.000978 0.000978 0.999999 
-2.867745 -4.256708 71.440773 0.000978 0.000978 0.999999 
-7.208574 -9.493034 71.440773 0.000978 0.000978 0.999999 
-9.994547 -7.885494 71.440773 0.000978 0.000978 0.999999 
-11.385769 -8.075941 71.440773 0.000978 0.000978 0.999999 
-11.812088 -10.388893 71.440773 0.000978 0.000978 0.999999 
-4.441116 -4.348083 71.440773 0.000978 0.000978 0.999999 
-11.289799 -11.793657 71.440773 0.000978 0.000978 0.999999 
-3.079676 -5.529905 71.440773 0.000978 0.000978 0.999999 
-22.165922 -20.020254 71.440773 0.000978 0.000978 0.999999 
-12.565870 -16.427252 71.440773 0.000978 0.000978 0.999999 
-21.173985 -22.461641 71.440773 0.000978 0.000978 0.999999 
-14.437723 -20.737965 71.440773 0.000978 0.000978 0.999999 
-6.274076 -11.128271 71.440773 0.000978 0.000978 0.999999 
-2.731402 -8.725471 71.440773 0.000978 0.000978 0.999999 
-24.994030 -21.668406 71.440773 0.000978 0.000978 0.999999 
-24.439190 21.743294 71.440773 0.000978 0.000978 0.999999 
24.226294 24.433638 71.440773 0.000978 0.000978 0.999999 
17.470345 17.957603 71.440773 0.000978 0.000978 0.999999 
19.387945 17.044426 71.440773 0.000978 0.000978 0.999999 
21.038954 23.759962 71.440773 0.000978 0.000978 0.999999 
14.034945 13.969771 71.440773 0.000978 0.000978 0.999999 
18.770475 21.915392 71.440773 0.000978 0.000978 0.999999 
17.263428 16.302240 71.440773 0.000978 0.000978 0.999999 
4.943928 7.017406 71.440773 0.000978 0.000978 0.999999 
8.937941 8.976562 71.440773 0.000978 0.000978 0.999999 
6.770688 7.446692 71.440773 0.000978 0.000978 0.999999 
8.644080 4.837399 71.440773 0.000978 0.000978 0.999999 
6.113707 4.194274 71.440773 0.000978 0.000978 0.999999 
16.987858 14.118876 71.440773 0.000978 0.000978 0.999999 
9.576944 4.120187 71.440773 0.000978 0.000978 0.999999 
6.793893 2.034140 71.440773 0.000978 0.000978 0.999999 
4.746847 -4.145019 71.440773 0.000978 0.000978 0.999999 
27.562737 -28.893377 71.440773 0.000978 0.000978 0.999999 
26.014503 -26.990129 71.440773 0.000978 0.000978 0.999999 
31.862957 -22.017931 71.440773 0.000978 0.000978 0.999999 
0.788437 -4.356806 71.440773 0.000978 0.000978 0.999999 
0.093104 -4.230327 71.440773 0.000978 0.000978 0.999999 
11.541769 -6.156631 71.440773 0.000978 0.000978 0.999999 
15.101325 -13.009748 71.440773 0.000978 0.000978 0.999999 
10.183544 -4.834592 71.440773 0.000978 0.000978 0.999999 
13.973742 -11.019232 71.440773 0.000978 0.000978 0.999999 
9.489750 -10.039520 71.440773 0.000978 0.000978 0.999999 
7.046087 -3.932535 71.440773 0.000978 0.000978 0.999999 
24.568962 -20.743233 71.440773 0.000978 0.000978 0.999999 
18.081818 -20.301983 71.440773 0.000978 0.000978 0.999999 
13.176474 -14.320074 71.440773 0.000978 0.000978 0.999999 
20.658377 -17.562759 71.440773 0.000978 0.000978 0.999999 
16.501369 -15.871268 71.440773 0.000978 0.000978 0.999999 
9.180393 -12.065788 71.440773 0.000978 0.000978 0.999999 
-38.045582 -43.469219 127.612450 0.207235 -0.978290 0.001158 
-36.479301 -42.644020 125.147026 0.701550 -0.712619 0.001384 
-40.987251 -42.572170 113.383476 -0.722131 -0.691755 0.001381 
-35.590134 -39.775383 107.676140 0.981965 0.189060 0.001146 
-35.547977 -40.039753 106.256783 0.994296 0.106647 0.001077 
-40.383125 -37.693176 100.456184 -0.531813 0.846861 0.001346 
-36.223953 -42.324280 98.611244 0.787127 -0.616789 0.001374 
-40.946777 -42.621437 98.232552 -0.708486 -0.705724 0.001381 
-40.367249 -37.682533 97.838089 -0.526725 0.850035 0.001347 
-35.546558 -40.060978 97.371170 0.995026 0.099610 0.001071 
-41.360790 -42.083061 94.361641 -0.842099 -0.539322 0.001352 
-38.127773 -37.277931 90.054924 0.181191 0.983447 0.001140 
-38.179428 -43.486530 78.119514 0.165311 -0.986241 0.001125 
-39.911606 -43.313347 78.042862 -0.382163 -0.924094 0.001278 
-41.635208 -41.521866 76.533623 -0.931838 -0.362873 0.001264 
-38.925400 -43.524773 70.425285 -0.069985 -0.997548 0.001045 
-36.402359 -39.838402 56.098618 0.501448 0.042589 0.864139 
-41.551140 -39.704990 58.846798 -0.470089 0.175362 0.865023 
-39.334595 -43.426018 60.331631 -0.153436 -0.474921 0.866549 
-37.779354 -37.509102 61.008209 0.207767 0.455891 0.865446 
-41.202286 -39.081364 61.398273 -0.415463 0.278497 0.865927 
-36.495274 -38.651531 62.268486 0.426422 0.259495 0.866502 
-37.584751 -37.699669 64.859436 0.249990 0.434831 0.865117 
-35.792385 -41.569176 66.936508 0.441152 -0.236385 0.865741 
-38.380871 -37.440693 71.232574 0.107104 0.486966 0.866829 
-36.541798 -38.241764 72.327209 0.397545 0.308519 0.864161 
-36.537113 -38.401905 73.644363 0.408601 0.292295 0.864643 
-36.314041 -38.554928 74.848740 0.426422 0.259495 0.866502 
-38.425339 -43.187714 77.065018 -0.006710 -0.500602 0.865652 
-40.690308 -42.526035 80.650757 -0.385247 -0.323853 0.864120 
-40.194046 -43.061703 80.620491 -0.295459 -0.405681 0.864943 
-39.364567 -37.305012 81.349770 -0.051196 0.499506 0.864796 
-41.503349 -39.548534 81.698265 -0.462599 0.197832 0.864213 
-36.864552 -42.581635 86.055344 0.269353 -0.421530 0.865887 
-37.803223 -37.786953 87.821487 0.223478 0.448456 0.865416 
-37.207546 -42.698757 88.632805 0.213767 -0.452946 0.865531 
-41.411526 -41.451515 90.721588 -0.481478 -0.134467 0.866082 
-38.662937 -37.319756 91.521317 0.059696 0.498391 0.864895 
-40.396587 -38.082439 91.763542 -0.243334 0.436792 0.866026 
-40.776199 -38.553493 91.860443 -0.329611 0.375603 0.866187 
-41.650703 -40.316845 91.900139 -0.497434 0.071462 0.864554 
-37.736221 -37.574341 92.781982 0.217473 0.451444 0.865392 
-35.618179 -40.090958 95.013733 0.499725 -0.012123 0.866099 
-40.838978 -38.420189 95.590691 -0.327364 0.379620 0.865287 
-39.992939 -43.049961 97.199127 -0.276063 -0.419432 0.864793 
-36.591404 -42.374020 97.493301 0.321101 -0.385629 0.864976 
-36.705330 -42.282757 98.847153 0.314819 -0.391604 0.864601 
-39.979687 -43.064671 99.735855 -0.272890 -0.422294 0.864407 
-41.013908 -38.535248 101.915031 -0.354327 0.351259 0.866643 
-41.828171 -40.799072 105.785538 -0.501756 -0.009416 0.864958 
-37.434162 -42.846794 107.654053 0.168974 -0.471658 0.865440 
-36.762691 -42.668282 107.576218 0.278877 -0.419077 0.864061 
-37.499882 -43.167377 108.762093 0.143889 -0.481083 0.864786 
-37.317791 -37.884556 109.321922 0.299039 0.406387 0.863380 
-39.414375 -43.406994 109.861580 -0.168974 -0.471658 0.865440 
-39.875984 -42.901684 113.811981 -0.269007 -0.424028 0.864775 
-38.842445 -43.248314 118.921516 -0.077249 -0.492992 0.866598 
-41.408154 -39.496483 119.833092 -0.455891 0.207767 0.865446 
-36.148605 -42.106483 124.084618 0.381990 -0.320626 0.866765 
-36.539463 -38.398540 125.714516 0.408234 0.295091 0.863867 
-40.340691 -38.104015 126.079063 -0.236385 0.441152 0.865741 
-41.535309 -39.053848 128.531189 -0.429236 0.256328 0.866056 
-36.033489 -39.148594 129.455765 0.473197 0.162616 0.865818 
-41.314495 -41.860180 130.077896 -0.459983 -0.200963 0.864887 
-39.880215 -42.866238 130.337631 -0.272173 -0.421183 0.865174 
-35.715458 -41.221195 130.495209 0.464278 -0.191348 0.864773 
-37.324539 -37.675129 130.812256 0.282043 0.416203 0.864423 
-38.610668 -37.983780 131.266708 0.083235 0.495177 0.864796 
-41.270241 -40.276993 128.943222 -0.495094 0.092210 0.863932 
