ply
format ascii 1.0
comment Created by CloudCompare v2.12.4 (Kyiv)
comment Created 2022-12-28T11:18:21
obj_info Generated by CloudCompare!
element vertex 776
property float x
property float y
property float z
property float nx
property float ny
property float nz
end_header
-41.458134 -41.946617 117.228569 -0.869469 -0.493986 0.001331 
-35.661861 -39.484062 116.489578 0.959249 0.282560 0.001213 
-41.319172 -38.620228 115.752922 -0.830587 0.556887 0.001355 
-40.455944 -43.015793 114.761185 -0.555013 -0.831841 0.001357 
-37.380829 -37.497540 114.212860 0.416342 0.909207 0.001297 
-36.198318 -38.467068 114.068436 0.795211 0.606331 0.001369 
-35.533794 -40.251499 113.965164 0.999131 0.041673 0.001016 
-41.474079 -38.849407 113.195198 -0.875906 0.482479 0.001329 
-38.299114 -37.255772 112.875824 0.127937 0.991782 0.001093 
-40.626945 -42.901176 112.251366 -0.607653 -0.794201 0.001372 
-36.902382 -42.987514 111.190926 0.569351 -0.822094 0.001359 
-39.633339 -43.407394 110.982109 -0.294859 -0.955540 0.001223 
-41.070068 -42.463734 110.829636 -0.751123 -0.660161 0.001378 
-40.739574 -37.953266 110.524483 -0.645448 0.763803 0.001376 
-37.878761 -37.312969 110.337532 0.257439 0.966294 0.001197 
-38.294701 -43.501434 108.485336 0.128215 -0.991746 0.001096 
-41.665585 -39.308773 108.183319 -0.940631 0.339429 0.001253 
-38.297142 -37.256027 107.824280 0.128215 0.991746 0.001096 
-41.129139 -38.371395 106.832817 -0.771254 0.636526 0.001375 
-36.389877 -42.541546 106.190460 0.730182 -0.683251 0.001380 
-40.826332 -42.727856 105.894592 -0.671779 -0.740750 0.001379 
-41.702877 -41.359550 105.669571 -0.950879 -0.309560 0.001233 
-36.208721 -38.453445 105.178688 0.791857 0.610705 0.001372 
-41.839962 -40.836548 104.406517 -0.989726 -0.142973 0.001108 
-40.146713 -37.559952 104.180504 -0.457199 0.889364 0.001318 
-35.526226 -40.393307 103.698036 0.999995 -0.002944 0.000981 
-39.506390 -37.308147 102.857735 -0.254023 0.967197 0.001193 
-40.817219 -42.735909 102.045097 -0.668888 -0.743362 0.001379 
-41.777229 -41.145905 100.560089 -0.970628 -0.240583 0.001185 
-35.549957 -40.010189 100.042877 0.993261 0.115898 0.001083 
-40.642189 -42.890560 99.491905 -0.612421 -0.790530 0.001370 
-41.466293 -41.927048 99.483429 -0.872392 -0.488806 0.001332 
-41.714764 -41.331039 99.340469 -0.953712 -0.300720 0.001227 
-39.054756 -37.249737 99.084152 -0.111381 0.993777 0.001081 
-37.859131 -37.319550 98.944237 0.265352 0.964151 0.001201 
-36.088959 -42.147518 98.590317 0.827633 -0.561268 0.001359 
-41.562405 -39.061275 95.447639 -0.908224 0.418483 0.001296 
-35.540859 -40.611732 94.888107 0.997389 -0.072214 0.001047 
-35.550758 -40.759552 94.908844 0.992948 -0.118545 0.001088 
-37.052223 -43.087944 94.650543 0.520416 -0.853912 0.001345 
-36.508476 -38.087982 92.505188 0.691755 0.722131 0.001381 
-35.833366 -39.072666 91.197128 0.909655 0.415362 0.001294 
-40.611164 -37.846024 90.192444 -0.603278 0.797530 0.001368 
-35.541744 -40.132824 89.867599 0.996891 0.078785 0.001050 
-38.082977 -43.474056 89.509445 0.196558 -0.980491 0.001149 
-39.849220 -37.422771 86.350418 -0.362873 0.931838 0.001264 
-35.982815 -38.749249 86.157356 0.857729 0.514100 0.001342 
-36.732311 -42.867569 85.855003 0.621510 -0.783405 0.001372 
-40.011890 -37.493706 85.114120 -0.415362 0.909655 0.001294 
-35.637180 -41.214397 83.334373 0.964929 -0.262509 0.001199 
-38.793808 -43.541790 83.139313 -0.029133 -0.999575 0.001005 
-39.175446 -37.265347 82.486984 -0.150135 0.988665 0.001112 
-36.106060 -38.587872 82.219620 0.823366 0.567510 0.001361 
-35.646721 -41.237408 82.120422 0.962562 -0.271059 0.001205 
-40.633511 -42.896778 81.699333 -0.610705 -0.791857 0.001372 
-37.011612 -37.697052 81.150909 0.533028 0.846097 0.001349 
-35.698273 -41.361050 80.786110 0.950879 -0.309560 0.001233 
-38.898361 -37.229511 79.904427 -0.061152 0.998128 0.001036 
-41.826969 -39.857166 78.901413 -0.986605 0.163122 0.001125 
-35.945770 -41.954723 78.216331 0.867668 -0.497143 0.001333 
-36.893646 -42.981659 78.215363 0.570625 -0.821210 0.001362 
-40.203922 -37.588062 77.558395 -0.475046 0.879960 0.001323 
-40.909557 -42.654324 75.384918 -0.697373 -0.716707 0.001381 
-36.554459 -38.047356 73.487305 0.678911 0.734219 0.001383 
-40.687351 -42.850655 72.810471 -0.627537 -0.778585 0.001373 
-36.202549 -42.296253 70.577538 0.792878 -0.609379 0.001369 
-38.796204 -43.541481 70.395111 -0.029192 -0.999573 0.001007 
-39.109299 -37.256794 69.840118 -0.128215 0.991746 0.001096 
-36.508739 -38.087749 69.624931 0.691755 0.722131 0.001381 
-35.949093 -38.795082 69.644951 0.867007 0.498295 0.001336 
-35.552372 -39.974163 69.447052 0.991782 0.127937 0.001093 
-38.954891 -43.520958 67.790512 -0.078950 -0.996878 0.001053 
-41.660946 -39.297649 67.495308 -0.939536 0.342448 0.001254 
-38.053959 -37.287479 67.271980 0.204554 0.978855 0.001156 
-41.784180 -39.646145 66.179367 -0.973308 0.229498 0.001177 
-36.325459 -38.300587 65.748405 0.753685 0.657235 0.001378 
-35.611435 -39.670334 65.707924 0.974705 0.223492 0.001170 
-36.122860 -42.191906 65.476357 0.817758 -0.575560 0.001361 
-41.606304 -41.591194 65.035614 -0.922811 -0.385251 0.001280 
-41.507572 -38.929749 64.937286 -0.888291 0.459279 0.001316 
-40.984589 -42.575661 63.874447 -0.722131 -0.691755 0.001381 
-41.822140 -40.924438 62.509289 -0.985302 -0.170816 0.001131 
-36.565636 -42.720299 61.684303 0.674661 -0.738126 0.001380 
-37.162483 -43.152954 61.580406 0.485642 -0.874156 0.001331 
-41.799419 -41.036484 61.200195 -0.978290 -0.207235 0.001158 
-35.663158 -41.276829 59.263035 0.959055 -0.283219 0.001216 
-39.607761 -43.415974 58.973106 -0.286119 -0.958193 0.001218 
-35.948048 -38.797581 58.190304 0.867007 0.498295 0.001336 
-37.631481 -38.120052 56.199551 0.276063 0.419432 0.864793 
-41.463020 -39.693962 56.354603 -0.468741 0.178920 0.865026 
-40.973076 -41.981785 56.557022 -0.438407 -0.239542 0.866268 
-40.408146 -42.732883 56.554279 -0.342543 -0.367120 0.864805 
-36.539871 -42.459145 56.797649 0.317963 -0.388621 0.864797 
-36.244030 -42.313435 56.731564 0.357388 -0.348184 0.866627 
-36.570675 -38.412090 57.154507 0.405681 0.295459 0.864943 
-37.523251 -37.440395 57.098331 0.239849 0.441986 0.864362 
-41.364250 -38.773396 57.410831 -0.402382 0.301404 0.864433 
-41.410736 -41.887993 57.628460 -0.460256 -0.198104 0.865401 
-40.806866 -42.569221 57.724007 -0.388621 -0.317963 0.864797 
-40.369461 -42.848667 57.792839 -0.327364 -0.379620 0.865287 
-39.042313 -43.241554 57.937538 -0.113182 -0.485682 0.866777 
-38.395443 -43.192772 58.011993 -0.001336 -0.498295 0.867007 
-36.480362 -38.535572 58.416965 0.418328 0.275336 0.865559 
-41.364658 -39.573277 58.917385 -0.461170 0.201482 0.864134 
-36.282341 -42.373589 59.263615 0.348184 -0.357388 0.866627 
-37.263268 -37.585518 59.629532 0.279233 0.416560 0.865163 
-37.907295 -37.591957 59.813923 0.194971 0.462870 0.864718 
-38.364799 -37.347412 59.746525 0.107104 0.486966 0.866829 
-39.115208 -37.463142 59.857212 -0.017574 0.498826 0.866524 
-39.690632 -37.383999 59.780369 -0.103989 0.491453 0.864673 
-41.523170 -41.002308 60.233818 -0.500453 -0.048253 0.864418 
-38.249836 -43.373180 60.445107 0.020324 -0.499971 0.865804 
-36.344414 -41.849937 60.773148 0.390941 -0.311220 0.866203 
-36.282707 -41.719528 60.793339 0.407522 -0.291524 0.865413 
-35.745235 -40.194347 60.794193 0.501327 -0.031418 0.864687 
-35.799355 -39.278027 60.764748 0.482854 0.128281 0.866254 
-37.698498 -37.718803 61.090084 0.233228 0.443885 0.865200 
-38.199051 -37.311344 60.973042 0.134467 0.481478 0.866082 
-41.599434 -40.152859 61.429268 -0.492682 0.097968 0.864677 
-41.036610 -42.088665 61.573151 -0.433694 -0.249336 0.865876 
-38.873344 -43.182018 61.805099 -0.085946 -0.491722 0.866501 
-37.937206 -43.091385 61.872417 0.074250 -0.497332 0.864377 
-36.361164 -41.832390 62.057144 0.390941 -0.311220 0.866203 
-35.907692 -41.167492 62.030602 0.465471 -0.191840 0.864022 
-35.939114 -39.280602 62.114616 0.479252 0.134654 0.867287 
-39.665768 -37.528675 62.405151 -0.101169 0.491597 0.864926 
-36.093559 -41.607883 63.270348 0.426422 -0.259495 0.866502 
-35.847473 -40.867535 63.320087 0.478844 -0.144090 0.865995 
-36.859966 -38.017967 63.483475 0.352195 0.355271 0.865876 
-39.669903 -37.792786 63.816742 -0.113182 0.485682 0.866777 
-41.657963 -39.338783 63.778175 -0.450274 0.216910 0.866143 
-41.514214 -40.767097 64.048042 -0.499448 -0.004017 0.866335 
-40.811298 -42.234993 64.182770 -0.413320 -0.285206 0.864769 
-38.835430 -43.477074 64.180397 -0.074173 -0.494019 0.866282 
-36.409996 -42.429668 64.375893 0.333607 -0.373578 0.865532 
-36.450130 -38.266258 64.668365 0.402752 0.298618 0.865227 
-38.188904 -37.281727 64.764557 0.134467 0.481478 0.866082 
-41.453934 -41.407078 65.304901 -0.484202 -0.122128 0.866391 
-40.682255 -42.736156 65.332870 -0.364457 -0.342928 0.865778 
-38.104298 -43.105434 65.681435 0.048320 -0.498382 0.865610 
-37.433914 -43.069725 65.625114 0.159539 -0.475690 0.865024 
-35.929096 -40.548073 65.950592 0.491608 -0.094922 0.865628 
-35.927479 -39.495399 65.951744 0.491608 0.094922 0.865628 
-36.346996 -38.375031 65.919785 0.413678 0.282400 0.865518 
-41.509686 -40.222481 66.567177 -0.494010 0.089177 0.864871 
-40.752323 -42.596924 66.626694 -0.382628 -0.324235 0.865140 
-39.966282 -43.134510 66.686378 -0.265840 -0.426863 0.864359 
-39.301548 -43.115921 66.860558 -0.166117 -0.471890 0.865867 
-38.084774 -43.376949 66.790451 0.045456 -0.497257 0.866412 
-37.679008 -43.086044 66.920082 0.116298 -0.486730 0.865776 
-35.872093 -39.977783 67.215271 0.500602 0.006710 0.865652 
-35.818268 -39.466339 67.156494 0.490527 0.098105 0.865886 
-37.176720 -38.094341 67.447487 0.330488 0.376603 0.865418 
-37.107754 -37.813824 67.304352 0.314819 0.391604 0.864601 
-41.048698 -38.568443 67.623604 -0.360442 0.345104 0.866594 
-41.159901 -42.117123 67.853081 -0.436469 -0.246174 0.865386 
-40.576012 -42.650562 67.948952 -0.364072 -0.345638 0.864862 
-40.587013 -42.904778 67.845093 -0.342543 -0.367120 0.864805 
-36.843426 -42.914330 68.109238 0.246819 -0.437612 0.864625 
-35.912220 -38.926521 68.389038 0.465926 0.184891 0.865291 
-36.341648 -38.466423 68.485344 0.421183 0.272173 0.865174 
-36.964653 -37.949162 68.578102 0.336720 0.370545 0.865631 
-37.860889 -37.505676 68.646545 0.197832 0.462599 0.864213 
-39.443550 -37.384945 68.696022 -0.065632 0.498524 0.864388 
-39.919582 -37.637573 68.779648 -0.150161 0.479641 0.864521 
-41.645073 -39.367554 68.873062 -0.452946 0.213767 0.865531 
-40.920841 -41.990631 69.279434 -0.436792 -0.243334 0.866026 
-37.429573 -42.915802 69.516617 0.166117 -0.471890 0.865867 
-36.224648 -41.685532 69.663925 0.413678 -0.282400 0.865518 
-40.708279 -38.374016 70.224808 -0.308519 0.397545 0.864161 
-41.390469 -39.322449 70.262764 -0.444195 0.230379 0.865804 
-39.790848 -43.144638 70.540291 -0.239849 -0.441986 0.864362 
-39.005051 -37.609600 71.372742 0.004008 0.498291 0.867000 
-41.365547 -39.318920 71.544258 -0.441464 0.233539 0.866354 
-39.036758 -43.351746 71.845230 -0.107104 -0.486966 0.866829 
-35.730419 -40.718559 72.169991 0.488917 -0.116136 0.864565 
-35.892906 -40.052151 72.306496 0.499441 -0.006695 0.866322 
-37.409821 -37.774109 72.466240 0.279233 0.416560 0.865163 
-38.715820 -37.485043 72.571793 0.051196 0.499506 0.864796 
-41.622967 -40.053631 72.832123 -0.489078 0.113305 0.864850 
-41.146450 -41.983383 72.979118 -0.446607 -0.230071 0.864644 
-35.740009 -39.651974 73.483437 0.499505 0.062612 0.864046 
-38.914406 -37.516510 73.859299 0.017574 0.498826 0.866524 
-40.990776 -38.503292 73.971657 -0.351259 0.354327 0.866643 
-41.483444 -39.262848 74.007538 -0.441464 0.233539 0.866354 
-41.617493 -41.478947 74.090599 -0.483030 -0.125444 0.866571 
-36.836266 -42.624443 74.597183 0.272173 -0.421183 0.865174 
-36.253895 -42.092529 74.605751 0.375981 -0.326874 0.867059 
-36.282871 -38.640938 74.859550 0.433694 0.249336 0.865876 
-38.835449 -37.409504 75.067787 0.031344 0.500145 0.865374 
-39.656479 -37.457111 75.065819 -0.100920 0.490388 0.865641 
-41.443703 -38.979309 75.217758 -0.421530 0.269353 0.865887 
-41.535709 -41.717812 75.366409 -0.471890 -0.166117 0.865867 
-41.124699 -42.368191 75.413254 -0.418328 -0.275336 0.865559 
-39.809258 -43.150490 75.612411 -0.240168 -0.439553 0.865512 
-36.007011 -41.937588 75.832253 0.408234 -0.295091 0.863867 
-36.143555 -41.380070 76.060524 0.441152 -0.236385 0.865741 
-35.585999 -40.100231 75.944901 0.500875 -0.014851 0.865392 
-35.911976 -39.179649 76.052002 0.476187 0.149992 0.866457 
-36.291153 -38.563824 76.109894 0.429236 0.256328 0.866056 
-41.126514 -41.718037 76.868721 -0.461946 -0.191611 0.865963 
-41.330395 -41.862179 76.728516 -0.459983 -0.200963 0.864887 
-36.932728 -42.701466 77.126671 0.252828 -0.434500 0.864458 
-35.704712 -39.942036 77.283356 0.501742 0.012106 0.864933 
-40.986069 -38.803642 77.904938 -0.375603 0.329611 0.866187 
-41.446339 -39.156590 77.806709 -0.433694 0.249336 0.865876 
-41.271095 -41.523678 78.088493 -0.476187 -0.149992 0.866457 
-37.028572 -42.853344 78.349541 0.227219 -0.446915 0.865239 
-35.937744 -41.436745 78.479820 0.446915 -0.227219 0.865239 
-41.433704 -39.362255 79.141678 -0.448456 0.223478 0.865416 
-41.089588 -42.029350 79.344040 -0.439553 -0.240168 0.865512 
-37.776726 -37.436333 80.018852 0.204624 0.458536 0.864797 
-38.896980 -37.397125 80.140434 0.020276 0.498800 0.866480 
-41.604263 -39.526291 80.369377 -0.462870 0.194971 0.864718 
-35.824657 -39.520496 81.138451 0.492925 0.086156 0.865796 
-36.107052 -39.104053 81.230003 0.469132 0.172064 0.866204 
-37.708870 -37.454208 81.281586 0.214321 0.454121 0.864778 
-41.760590 -40.782097 81.692635 -0.502609 -0.006701 0.864488 
-38.384762 -43.483105 81.971886 -0.001336 -0.498295 0.867007 
-36.525761 -42.088963 82.341377 0.351259 -0.354327 0.866643 
-35.921364 -39.996834 82.482292 0.499448 0.004017 0.866335 
-36.113235 -39.442280 82.556801 0.488023 0.110199 0.865847 
-36.161549 -39.060947 82.523636 0.466179 0.182032 0.865761 
-36.842667 -38.021008 82.527847 0.354885 0.354885 0.864936 
-38.269413 -37.586384 82.729019 0.131626 0.481663 0.866415 
-41.508255 -40.527222 83.100616 -0.500316 0.039751 0.864930 
-37.945877 -43.150227 83.430206 0.071462 -0.497434 0.864554 
-36.287601 -39.001446 83.855148 0.460256 0.198104 0.865401 
-40.670315 -37.984123 84.020401 -0.272173 0.421183 0.865174 
-40.981045 -38.371716 84.082512 -0.335825 0.369561 0.866398 
-41.257973 -39.124512 84.242668 -0.421530 0.269353 0.865887 
-41.237694 -41.487667 84.462654 -0.478844 -0.144090 0.865995 
-40.634468 -42.808826 84.374924 -0.354885 -0.354885 0.864936 
-38.929977 -43.249023 84.619133 -0.091887 -0.490534 0.866564 
-36.256435 -41.686012 84.919731 0.410786 -0.285565 0.865857 
-40.561237 -37.821533 85.241875 -0.246819 0.437612 0.864625 
-41.280205 -39.281532 85.546379 -0.434019 0.246498 0.866525 
-41.545692 -40.424976 85.618591 -0.498471 0.056928 0.865035 
-40.987785 -42.077442 85.730759 -0.432039 -0.253160 0.865594 
-41.251549 -42.071892 85.600662 -0.443885 -0.233228 0.865200 
-40.255859 -42.712898 85.830795 -0.330105 -0.379236 0.864413 
-38.484150 -43.204979 85.945244 -0.017574 -0.498826 0.866524 
-36.407501 -42.364727 85.991196 0.339304 -0.363869 0.867451 
-36.075775 -41.645931 86.110550 0.423598 -0.262661 0.866934 
-35.731457 -41.223431 86.052910 0.464278 -0.191348 0.864773 
-36.509346 -38.674065 86.412071 0.428901 0.259159 0.865379 
-39.114658 -37.357040 86.464287 -0.014816 0.499706 0.866068 
-40.870281 -38.318871 86.646851 -0.321101 0.385629 0.864976 
-41.618195 -41.173912 86.839630 -0.497332 -0.074250 0.864377 
-39.698627 -43.022751 87.133728 -0.233228 -0.443885 0.865200 
-35.651051 -41.166927 87.292419 0.468741 -0.178920 0.865026 
-36.143021 -38.921505 87.569366 0.459983 0.200963 0.864887 
-40.609547 -38.225941 87.964081 -0.285206 0.413320 0.864769 
-41.472160 -41.560081 88.129387 -0.476394 -0.147143 0.866832 
-39.717297 -43.047325 88.386887 -0.233539 -0.441464 0.866354 
-36.944733 -42.993557 88.415298 0.230379 -0.444195 0.865804 
-36.590366 -38.311947 88.883507 0.400501 0.305363 0.863917 
-37.218559 -37.870457 88.961777 0.308519 0.397545 0.864161 
-39.152618 -37.434975 89.049957 -0.023033 0.499942 0.865753 
-40.558578 -37.942245 89.112473 -0.255994 0.431706 0.864926 
-41.533054 -39.893852 89.366234 -0.478844 0.144090 0.865995 
-40.985031 -38.376823 90.432930 -0.338924 0.366529 0.866480 
-41.858662 -40.520622 90.520576 -0.499233 0.034194 0.865793 
-36.713383 -42.376205 91.190552 0.308142 -0.400125 0.863104 
-35.748112 -41.476688 91.069695 0.448456 -0.223478 0.865416 
-35.658920 -41.129845 91.113342 0.470089 -0.175362 0.865023 
-35.570190 -40.277164 91.170815 0.499387 -0.042647 0.865329 
-36.919319 -38.154072 91.499306 0.361016 0.348726 0.864903 
-41.682133 -40.038940 91.848557 -0.489078 0.113305 0.864850 
-41.633591 -40.491188 91.919693 -0.499326 0.045393 0.865224 
-41.473728 -41.120934 92.006798 -0.499636 -0.068577 0.863517 
-41.197346 -41.578712 92.090958 -0.470918 -0.162841 0.867017 
-37.307888 -37.801414 92.768417 0.292295 0.408601 0.864643 
-41.464657 -40.923962 93.285759 -0.501282 -0.034147 0.864610 
-38.515820 -43.499294 93.394203 -0.023033 -0.499942 0.865753 
-36.996483 -37.767887 93.911537 0.321101 0.385629 0.864976 
-40.353439 -38.132820 94.339348 -0.243012 0.439233 0.864881 
-41.424553 -39.307266 94.370834 -0.444195 0.230379 0.865804 
-41.447613 -41.385994 94.521698 -0.484370 -0.119296 0.866692 
-36.724651 -42.356792 95.013672 0.308519 -0.397545 0.864161 
-35.996128 -41.756668 94.928947 0.421530 -0.269353 0.865887 
-35.676422 -40.043007 95.047501 0.500602 -0.006710 0.865652 
-40.909084 -38.423798 95.563232 -0.332721 0.372586 0.866301 
-41.614014 -41.188023 95.729881 -0.496318 -0.077330 0.864690 
-38.970856 -43.387169 95.963783 -0.097864 -0.489321 0.866595 
-36.046719 -39.558601 96.507858 0.495059 0.086036 0.864589 
-37.474953 -37.580891 96.522606 0.255994 0.431706 0.864926 
-39.797344 -37.410690 96.612587 -0.119426 0.487777 0.864761 
-40.825630 -38.612469 96.943886 -0.342017 0.363489 0.866545 
-41.429531 -40.986309 97.115250 -0.500517 -0.045502 0.864530 
-41.140419 -42.030746 97.098305 -0.441152 -0.236385 0.865741 
-36.249489 -38.506535 97.661095 0.426422 0.259495 0.866502 
-38.741688 -37.245136 97.833199 0.045393 0.499326 0.865224 
-41.721012 -41.314064 98.189842 -0.491608 -0.094922 0.865628 
-36.143200 -42.069878 98.697182 0.387591 -0.317120 0.865568 
-41.504375 -41.809525 99.498604 -0.466179 -0.182032 0.865761 
-40.822510 -42.686897 99.581741 -0.379620 -0.327364 0.865287 
-37.939770 -43.409264 99.789154 0.068412 -0.498431 0.864226 
-35.817448 -41.394997 100.018997 0.450274 -0.216910 0.866143 
-37.892258 -37.324997 100.308197 0.181780 0.468491 0.864565 
-38.804569 -37.226261 100.361259 0.034194 0.499233 0.865793 
-41.430080 -41.726425 100.824974 -0.470089 -0.175362 0.865023 
-36.646431 -42.719933 101.162964 0.285206 -0.413320 0.864769 
-36.636803 -42.325951 101.341438 0.320720 -0.388240 0.863949 
-41.869225 -40.398678 101.941071 -0.499434 0.053955 0.864670 
-36.624943 -42.272381 102.628189 0.324235 -0.382628 0.865140 
-35.888821 -41.572632 102.545761 0.439233 -0.243012 0.864881 
-39.619389 -37.472530 103.019012 -0.094922 0.491608 0.865628 
-40.487568 -38.093029 103.173820 -0.256328 0.429236 0.866056 
-40.311619 -42.876457 103.522377 -0.320720 -0.388240 0.863949 
-38.395412 -43.356567 103.637093 -0.001334 -0.500299 0.865851 
-35.751339 -39.434029 103.944023 0.490388 0.100920 0.865641 
-36.427494 -38.499489 104.099037 0.418328 0.275336 0.865559 
-37.760254 -37.438133 104.145737 0.207483 0.458254 0.864265 
-40.763824 -38.086155 104.357880 -0.291524 0.407522 0.865413 
-41.261307 -39.358326 104.627815 -0.438407 0.239542 0.866268 
-39.668713 -43.132015 104.870171 -0.220625 -0.448755 0.865993 
-35.645958 -40.021675 105.190819 0.501457 -0.001337 0.865181 
-35.923637 -39.415524 105.307213 0.488023 0.110199 0.865847 
-36.656418 -38.318806 105.426369 0.397167 0.311293 0.863340 
-40.611305 -38.029453 105.649765 -0.269007 0.424028 0.864775 
-40.288166 -42.850281 106.083000 -0.320720 -0.388240 0.863949 
-39.073082 -43.277634 106.172943 -0.116010 -0.485522 0.866493 
-38.216988 -37.297382 106.687431 0.131296 0.480458 0.867134 
-39.470623 -37.383774 106.794922 -0.071290 0.496231 0.865259 
-41.272083 -38.633396 106.923622 -0.381990 0.320626 0.866765 
-41.525341 -39.319736 107.021858 -0.446055 0.223778 0.866578 
-41.675999 -40.445656 107.133942 -0.498313 0.051074 0.865491 
-41.380337 -41.446960 107.249641 -0.481478 -0.134467 0.866082 
-41.651783 -41.450199 107.096001 -0.484370 -0.119296 0.866692 
-41.312229 -42.005615 107.180023 -0.451148 -0.220328 0.864825 
-38.309185 -43.269352 107.497490 0.014816 -0.499706 0.866068 
-37.912205 -43.334427 107.452019 0.074250 -0.497332 0.864377 
-36.692135 -42.645145 107.564270 0.288366 -0.410426 0.865099 
-35.576488 -40.274082 107.684532 0.498200 -0.042546 0.866018 
-37.960514 -37.603722 108.093346 0.188227 0.466862 0.864066 
-38.568371 -37.554821 108.154099 0.077142 0.495114 0.865397 
-41.142967 -38.612156 108.240715 -0.372586 0.332721 0.866301 
-41.794521 -40.320511 108.327492 -0.498431 0.068412 0.864226 
-40.927200 -42.138836 108.603043 -0.427206 -0.263013 0.865054 
-39.771381 -43.134007 108.650734 -0.237003 -0.442304 0.864984 
-38.972347 -43.395603 108.658714 -0.097864 -0.489321 0.866595 
-36.541557 -42.488148 108.856628 0.314819 -0.391604 0.864601 
-36.061558 -41.361149 109.044807 0.445754 -0.226629 0.865993 
-35.882507 -38.992237 109.023338 0.470089 0.175362 0.865023 
-36.740719 -37.959431 109.133430 0.357954 0.351809 0.864927 
-41.477535 -39.239143 109.563889 -0.441152 0.236385 0.865741 
-41.584515 -39.773064 109.640572 -0.474400 0.163029 0.865082 
-35.749660 -40.147133 110.327461 0.501117 -0.023087 0.865072 
-37.870159 -37.729374 110.672729 0.207767 0.455891 0.865446 
-41.216404 -39.100037 110.926529 -0.418328 0.275336 0.865559 
-41.055729 -42.327675 111.020706 -0.418328 -0.275336 0.865559 
-37.301193 -43.162106 111.269005 0.172504 -0.470330 0.865466 
-38.333660 -37.271767 111.768593 0.110079 0.484633 0.867764 
-40.012157 -37.508381 111.872971 -0.156684 0.475910 0.865424 
-41.816174 -40.732582 112.141037 -0.501457 0.001337 0.865181 
-41.471821 -41.760719 112.225410 -0.467788 -0.175605 0.866220 
-41.135616 -42.125530 112.312775 -0.433694 -0.249336 0.865876 
-40.048508 -42.861980 112.512962 -0.295459 -0.405681 0.864943 
-36.719204 -42.343163 112.798378 0.308519 -0.397545 0.864161 
-35.863941 -40.690887 112.884926 0.486730 -0.116298 0.865776 
-41.550026 -39.044868 113.280983 -0.429236 0.256328 0.866056 
-41.308445 -41.792633 113.582840 -0.464278 -0.191348 0.864773 
-41.084652 -41.815968 113.698723 -0.455606 -0.210625 0.864905 
-40.174156 -42.722988 113.799042 -0.320720 -0.388240 0.863949 
-39.603497 -43.287167 113.697113 -0.204624 -0.458536 0.864797 
-38.598698 -43.349064 113.802437 -0.036926 -0.499184 0.865709 
-38.223938 -43.323071 113.814453 0.025836 -0.499045 0.866191 
-36.838696 -42.891037 113.839951 0.249990 -0.434831 0.865117 
-36.530083 -42.588963 113.886635 0.307703 -0.396492 0.864935 
-36.026745 -41.692871 114.012535 0.424373 -0.266184 0.865479 
-35.615433 -40.046124 114.063408 0.500602 -0.006710 0.865652 
-35.942181 -39.313866 114.191742 0.480458 0.131296 0.867134 
-39.984993 -37.487888 114.407005 -0.150371 0.477392 0.865728 
-40.414177 -37.735195 114.446381 -0.223478 0.448456 0.865416 
-40.963951 -38.202316 114.501129 -0.321101 0.385629 0.864976 
-41.655380 -41.454075 114.713303 -0.484370 -0.119296 0.866692 
-36.237328 -39.138794 115.598701 0.469132 0.172064 0.866204 
-37.227581 -37.721298 115.564362 0.295459 0.405681 0.864943 
-40.893753 -42.555885 116.111877 -0.394579 -0.311671 0.864389 
-39.585701 -43.142376 116.318291 -0.207767 -0.455891 0.865446 
-37.674671 -43.248905 116.361717 0.110199 -0.488023 0.865847 
-35.706264 -40.292969 116.648933 0.500453 -0.048253 0.864418 
-37.087265 -37.930923 116.878960 0.323853 0.385247 0.864120 
-38.091976 -37.515602 116.953949 0.159539 0.475690 0.865024 
-39.649521 -37.585766 117.049118 -0.101169 0.491597 0.864926 
-41.054882 -38.545567 117.141632 -0.360442 0.345104 0.866594 
-41.637234 -40.128056 117.285553 -0.491597 0.101169 0.864926 
-40.138371 -37.770283 118.342789 -0.188227 0.466862 0.864066 
-40.539600 -38.053410 118.380730 -0.262323 0.426085 0.865817 
-40.665848 -38.164894 118.398697 -0.285565 0.410786 0.865857 
-41.480839 -39.883209 118.602371 -0.479849 0.147309 0.864896 
-41.850311 -40.656902 118.469215 -0.499706 0.014816 0.866068 
-41.119968 -41.918625 118.731194 -0.448755 -0.220625 0.865993 
-40.408333 -42.525238 118.863228 -0.361016 -0.348726 0.864903 
-36.905682 -42.474781 119.137573 0.272521 -0.418677 0.866281 
-35.720997 -39.923992 119.202370 0.500853 0.017550 0.865355 
-36.400635 -38.840977 119.426567 0.446607 0.230071 0.864644 
-39.005386 -37.547058 119.596626 0.001336 0.498295 0.867007 
-41.461739 -41.218773 119.939789 -0.492925 -0.086156 0.865796 
-40.658855 -42.775066 119.937851 -0.361016 -0.348726 0.864903 
-39.634708 -43.234695 120.067307 -0.210625 -0.455606 0.864905 
-38.182163 -43.126930 120.279289 0.034194 -0.499233 0.865793 
-41.266521 -41.986336 121.178413 -0.448755 -0.220625 0.865993 
-40.470383 -42.641750 121.333885 -0.355271 -0.352195 0.865876 
-40.331261 -42.924042 121.273636 -0.317963 -0.388621 0.864797 
-39.175278 -43.207855 121.437286 -0.137841 -0.480268 0.866223 
-36.316795 -38.584743 121.849358 0.429236 0.256328 0.866056 
-36.948700 -38.219517 122.016106 0.364072 0.345638 0.864862 
-38.725239 -37.379253 122.040688 0.048320 0.498382 0.865610 
-39.666245 -37.656845 122.164734 -0.106955 0.489141 0.865622 
-41.298855 -41.727863 122.489319 -0.466179 -0.182032 0.865761 
-39.689751 -43.153915 122.633934 -0.223478 -0.448456 0.865416 
-36.835194 -42.497929 122.917313 0.282043 -0.416203 0.864423 
-35.864590 -40.917938 123.011726 0.477180 -0.153223 0.865345 
-36.041290 -39.517246 123.168427 0.491608 0.094922 0.865628 
-39.996056 -37.680107 123.401054 -0.163029 0.474400 0.865082 
-38.261898 -43.230927 124.029518 0.020324 -0.499971 0.865804 
-41.420246 -38.770287 124.695396 -0.405681 0.295459 0.864943 
-41.641041 -40.878441 124.938652 -0.501084 -0.025801 0.865014 
-39.296555 -43.281246 125.188820 -0.153436 -0.474921 0.866549 
-35.879505 -39.856510 125.639709 0.500186 0.028621 0.865445 
-36.398361 -38.516750 125.679626 0.421183 0.272173 0.865174 
-37.818859 -37.675697 125.873016 0.210911 0.453234 0.866081 
-38.677216 -37.403683 125.861725 0.056928 0.498471 0.865035 
-36.529072 -42.382988 126.673965 0.327364 -0.379620 0.865287 
-35.608044 -39.933155 126.760239 0.502893 0.014831 0.864221 
-36.018456 -38.856468 126.857491 0.461170 0.201482 0.864134 
-36.269604 -38.498055 126.878654 0.426085 0.262323 0.865817 
-37.950035 -37.427689 127.044403 0.178920 0.468741 0.865026 
-38.977123 -37.479008 127.177437 0.006695 0.499441 0.866322 
-41.129917 -39.013062 127.455063 -0.404972 0.291886 0.866487 
-41.442646 -39.452770 127.422714 -0.452946 0.213767 0.865531 
-41.054573 -41.928928 127.650780 -0.445754 -0.226629 0.865993 
-38.919342 -43.173534 127.843246 -0.094922 -0.491608 0.865628 
-38.904579 -43.471474 127.674171 -0.085946 -0.491722 0.866501 
-35.991726 -41.657791 127.974998 0.429236 -0.256328 0.866056 
-35.879272 -40.939167 128.096375 0.475910 -0.156684 0.865424 
-35.649529 -40.503944 128.030594 0.496318 -0.077330 0.864690 
-36.430912 -38.209377 128.141037 0.399442 0.304555 0.864692 
-36.685787 -38.286095 128.286301 0.391604 0.314819 0.864601 
-37.494610 -37.855183 128.408249 0.272173 0.421183 0.865174 
-40.282024 -37.959183 128.565872 -0.217473 0.451444 0.865392 
-40.849293 -38.277103 128.548645 -0.314819 0.391604 0.864601 
-41.298851 -39.325325 128.729553 -0.438407 0.239542 0.866268 
-40.119148 -43.145046 128.863419 -0.279233 -0.416560 0.865163 
-37.206974 -42.900345 129.172562 0.200963 -0.459983 0.864887 
-35.958958 -41.123569 129.379440 0.464278 -0.191348 0.864773 
-35.573708 -40.742294 129.231705 0.489078 -0.113305 0.864850 
-35.995197 -39.944622 129.513046 0.499706 0.014816 0.866068 
-38.638939 -37.275349 129.592392 0.062548 0.496215 0.865944 
-40.857624 -38.553268 129.926758 -0.338924 0.366529 0.866480 
-41.440121 -41.650471 130.042206 -0.473197 -0.162616 0.865818 
-37.487633 -42.998814 130.440308 0.153223 -0.477180 0.865345 
-37.132137 -43.063908 130.338699 0.200963 -0.459983 0.864887 
-35.690006 -40.782448 130.559097 0.485237 -0.125269 0.865363 
-36.054146 -39.086643 130.726974 0.469132 0.172064 0.866204 
-36.809803 -37.850922 130.707764 0.342543 0.367120 0.864805 
-36.347595 -42.401634 131.670364 0.342017 -0.363489 0.866545 
-36.136086 -38.591354 131.928528 0.439233 0.243012 0.864881 
-40.054630 -42.442825 131.750702 -0.336335 -0.373194 0.864642 
-40.553398 -38.958630 131.489716 -0.349112 0.358340 0.865860 
-36.748974 -38.943146 131.063293 0.439233 0.243012 0.864881 
-36.081875 -40.062531 130.837402 0.500602 -0.006710 0.865652 
-40.555855 -42.320080 130.318924 -0.391604 -0.314819 0.864601 
-41.068272 -39.228817 130.089691 -0.421530 0.269353 0.865887 
-40.751465 -38.893093 130.111633 -0.367120 0.342543 0.864805 
-39.037083 -37.727520 129.861938 -0.004017 0.499448 0.866335 
-38.261612 -37.980278 129.940491 0.156684 0.475910 0.865424 
-36.684361 -41.731365 129.547012 0.376603 -0.330488 0.865418 
-37.514130 -42.411232 129.505432 0.185108 -0.469435 0.863346 
-38.364323 -43.000477 129.244675 0.004017 -0.499448 0.866335 
-36.031769 -40.027946 128.266159 0.500299 -0.001334 0.865851 
-37.758869 -42.608749 128.167084 0.125405 -0.488648 0.863422 
-38.651237 -42.851433 128.060547 -0.053955 -0.499434 0.864670 
-40.248100 -42.551743 127.810890 -0.342928 -0.364457 0.865778 
-40.635387 -38.713413 127.545372 -0.333607 0.373578 0.865532 
-40.852104 -41.445793 126.599373 -0.474400 -0.163029 0.865082 
-41.078262 -39.719624 126.418213 -0.461170 0.201482 0.864134 
-37.355095 -38.133602 125.960373 0.317582 0.391224 0.863762 
-36.812420 -38.870441 125.994888 0.428901 0.259159 0.865379 
-36.975929 -42.429707 125.532494 0.269007 -0.424028 0.864775 
-39.944214 -42.395489 125.465500 -0.326981 -0.382246 0.864275 
-40.025780 -38.305630 125.004890 -0.207483 0.458254 0.864265 
-37.118603 -38.160816 124.601326 0.342543 0.367120 0.864805 
-37.535748 -42.699909 124.266396 0.159539 -0.475690 0.865024 
-38.143066 -42.990852 124.169151 0.042546 -0.498200 0.866018 
-41.124393 -40.876228 123.969955 -0.502226 -0.028582 0.864264 
-41.320885 -39.936295 123.780624 -0.479849 0.147309 0.864896 
-38.355190 -37.866013 123.541435 0.128281 0.482854 0.866254 
-36.358650 -40.211613 123.381783 0.501505 -0.039846 0.864237 
-36.721142 -41.905216 123.140068 0.355271 -0.352195 0.865876 
-37.211998 -42.672096 122.937675 0.214321 -0.454121 0.864778 
-37.343060 -42.492218 123.071091 0.208020 -0.459439 0.863506 
-37.774899 -42.757313 123.001198 0.116136 -0.488917 0.864565 
-38.854115 -42.974030 122.886848 -0.088959 -0.492803 0.865582 
-40.120846 -42.333565 122.881798 -0.355830 -0.355830 0.864159 
-41.054928 -40.730202 122.745300 -0.504619 0.001339 0.863341 
-41.062370 -39.280243 122.487808 -0.426085 0.262323 0.865817 
-37.135269 -42.214279 121.885849 0.265840 -0.426863 0.864359 
-40.254372 -42.547844 121.459877 -0.345638 -0.364072 0.864862 
-40.972443 -39.663017 121.376259 -0.453827 0.217178 0.864219 
-38.779747 -37.666817 120.937263 0.042647 0.499387 0.865329 
-36.209457 -40.236786 120.754349 0.501448 -0.042589 0.864139 
-36.517567 -41.567188 120.645470 0.405681 -0.295459 0.864943 
-36.496902 -39.596710 119.626312 0.492682 0.097968 0.864677 
-37.788574 -42.802567 119.166458 0.110199 -0.488023 0.865847 
-38.428040 -42.730141 119.242615 -0.012123 -0.499725 0.866099 
-39.489452 -42.837299 119.041283 -0.220328 -0.451148 0.864825 
-41.347008 -40.634460 118.755226 -0.502025 0.017591 0.864674 
-38.005737 -37.801384 118.369301 0.194702 0.465204 0.863526 
-36.816929 -38.909065 118.388016 0.432039 0.253160 0.865594 
-36.356277 -41.365704 118.084953 0.433694 -0.249336 0.865876 
-40.531116 -41.993435 117.738388 -0.416560 -0.279233 0.865163 
-41.351208 -39.866581 117.401573 -0.475910 0.156684 0.865424 
-37.929920 -37.741135 117.045288 0.200963 0.459983 0.864887 
-36.343353 -40.971645 116.918976 0.465471 -0.191840 0.864022 
-36.710892 -41.827328 116.818092 0.364457 -0.342928 0.865778 
-37.813263 -42.652462 116.719925 0.113305 -0.489078 0.864850 
-38.060711 -42.805939 116.658691 0.059839 -0.499590 0.864193 
-39.216961 -43.002304 116.467560 -0.156684 -0.475910 0.865424 
-40.128258 -38.216427 116.041344 -0.217178 0.453827 0.864219 
-37.259022 -38.475754 115.910652 0.361978 0.349655 0.864126 
-40.542690 -41.901875 115.218727 -0.426863 -0.265840 0.864359 
-41.189312 -41.455864 114.975006 -0.477837 -0.140882 0.867078 
-41.061977 -39.834293 115.021011 -0.469690 0.182246 0.863816 
-40.969173 -39.259998 114.908340 -0.418328 0.275336 0.865559 
-36.956940 -38.520622 114.525612 0.391224 0.317582 0.863762 
-36.395962 -39.536789 114.481270 0.490351 0.107220 0.864905 
-36.342628 -41.428635 114.249443 0.429236 -0.256328 0.866056 
-37.555046 -42.542526 114.199440 0.166308 -0.475377 0.863920 
-37.740902 -37.979507 113.306366 0.249660 0.437283 0.863975 
-36.740967 -38.527649 113.155876 0.408234 0.295091 0.863867 
-36.319183 -39.752129 113.196541 0.501755 0.056986 0.863130 
-36.572899 -41.509998 113.069847 0.408601 -0.292295 0.864643 
-36.835262 -41.797047 113.070793 0.352195 -0.355271 0.865876 
-36.805141 -42.348057 112.822220 0.298249 -0.405313 0.864158 
-37.779709 -38.102821 112.114677 0.253491 0.435640 0.863690 
-36.234146 -41.213699 111.716118 0.451148 -0.220328 0.864825 
-40.832047 -41.386993 111.379013 -0.477392 -0.150371 0.865728 
-38.106133 -37.869690 110.804787 0.178920 0.468741 0.865026 
-37.619385 -37.941097 110.708702 0.263013 0.427206 0.865054 
-36.559650 -38.875866 110.628281 0.439553 0.240168 0.865512 
-38.307396 -42.699642 110.371323 0.012123 -0.499725 0.866099 
-36.740147 -38.434265 109.317001 0.400501 0.305363 0.863917 
-36.608868 -38.902332 109.391136 0.439553 0.240168 0.865512 
-36.085171 -40.328053 109.247894 0.498391 -0.059696 0.864895 
-37.331837 -42.326675 109.185379 0.223756 -0.452018 0.863489 
-38.438213 -43.079174 108.878242 -0.012094 -0.498561 0.866770 
-41.136597 -40.071507 108.671928 -0.485928 0.137801 0.863067 
-40.926472 -39.232815 108.571434 -0.413320 0.285206 0.864769 
-39.740059 -37.946274 108.345238 -0.131626 0.481663 0.866415 
-37.921047 -42.667759 107.833862 0.092210 -0.495094 0.863932 
-41.238518 -40.497326 107.390732 -0.500517 0.045502 0.864530 
-40.498333 -38.739738 107.291565 -0.321101 0.385629 0.864976 
-40.126183 -38.155510 107.119530 -0.211170 0.456786 0.864149 
-36.743069 -38.985622 106.942238 0.441464 0.233539 0.866354 
-36.134987 -39.958870 106.739624 0.501742 0.012106 0.864933 
-36.565952 -41.535595 106.708817 0.405681 -0.295459 0.864943 
-36.850273 -41.884159 106.690887 0.339827 -0.367505 0.865712 
-38.734764 -42.776646 106.508232 -0.074250 -0.497332 0.864377 
-39.459145 -43.009342 106.257706 -0.200963 -0.459983 0.864887 
-40.185745 -42.311871 106.353325 -0.361978 -0.349655 0.864126 
-41.151493 -40.681286 106.175972 -0.502912 0.012135 0.864253 
-40.902924 -39.042828 105.979126 -0.393534 0.310846 0.865162 
-36.310375 -40.807858 105.503860 0.479160 -0.159720 0.863073 
-38.547485 -43.075733 105.070915 -0.028621 -0.500186 0.865445 
-39.755775 -42.883606 104.965324 -0.253160 -0.432039 0.865594 
-41.170273 -41.452404 104.826469 -0.477639 -0.143727 0.866720 
-41.347046 -41.030731 104.782700 -0.500631 -0.054085 0.863970 
-41.027740 -39.144169 104.684975 -0.410786 0.285565 0.865857 
-40.136253 -38.033688 104.511429 -0.204624 0.458536 0.864797 
-40.140957 -42.484406 103.757011 -0.342543 -0.367120 0.864805 
-40.857658 -41.982723 103.604164 -0.433694 -0.249336 0.865876 
-36.724209 -38.876904 103.092194 0.434500 0.252828 0.864458 
-41.389515 -40.501038 102.219757 -0.499387 0.042647 0.865329 
-40.947266 -39.008751 102.136040 -0.393534 0.310846 0.865162 
-39.086910 -37.751835 101.936134 -0.012123 0.499725 0.866099 
-36.217228 -40.228809 101.709236 0.501505 -0.039846 0.864237 
-36.764977 -41.987854 101.533646 0.339827 -0.367505 0.865712 
-40.644924 -39.053513 101.011948 -0.370545 0.336720 0.865631 
-39.762096 -38.064079 100.791847 -0.141040 0.481282 0.865145 
-36.209194 -41.357773 100.230995 0.438721 -0.236699 0.866889 
-36.435131 -41.278881 100.370148 0.436469 -0.246174 0.865386 
-38.015984 -42.797318 100.149216 0.068412 -0.498431 0.864226 
-40.137203 -42.634220 99.882851 -0.326981 -0.382246 0.864275 
-38.074413 -37.820724 99.342628 0.181780 0.468491 0.864565 
-37.396542 -38.088505 99.286057 0.308142 0.400125 0.863104 
-39.802502 -42.527657 98.785362 -0.295091 -0.408234 0.863867 
-38.231037 -37.771427 98.068695 0.146939 0.478641 0.865628 
-37.929123 -37.745811 97.997574 0.200963 0.459983 0.864887 
-39.073814 -37.807869 96.889580 -0.009407 0.498575 0.866795 
-38.930969 -37.840599 96.909241 0.014816 0.499706 0.866068 
-37.748760 -37.879414 96.744774 0.239849 0.441986 0.864362 
-40.606125 -42.261208 96.028877 -0.403449 -0.302203 0.863656 
-41.363834 -40.275639 95.868118 -0.494010 0.089177 0.864871 
-36.795689 -38.592041 95.423431 0.408601 0.292295 0.864643 
-36.006695 -39.913841 95.229912 0.499971 0.020324 0.865804 
-37.042965 -42.355392 95.113220 0.263013 -0.427206 0.865054 
-38.246479 -42.880341 95.025551 0.025801 -0.501084 0.865014 
-36.365162 -39.695629 94.166771 0.499538 0.071363 0.863348 
-36.170143 -39.775337 94.059242 0.500517 0.045502 0.864530 
-36.066486 -41.132191 93.873039 0.462599 -0.197832 0.864213 
-39.472458 -42.694862 93.720963 -0.226913 -0.449318 0.864074 
-37.784031 -38.210758 93.123161 0.262671 0.429687 0.863929 
-36.304893 -39.046711 92.762276 0.461946 0.191611 0.865963 
-39.686611 -42.611374 92.433167 -0.266540 -0.427986 0.863588 
-41.171337 -39.968689 92.125053 -0.480853 0.150541 0.863781 
-39.048431 -37.990353 91.916786 -0.004017 0.499448 0.866335 
-37.164532 -42.506866 91.260788 0.236686 -0.444728 0.863827 
-39.297852 -42.708500 91.219109 -0.194702 -0.465204 0.863526 
-41.103493 -41.064030 90.953392 -0.499636 -0.068577 0.863517 
-41.356457 -41.021606 90.806931 -0.499434 -0.053955 0.864670 
-39.162113 -37.684921 90.465858 -0.023033 0.499942 0.865753 
-38.368919 -38.032600 90.616302 0.137841 0.480268 0.866223 
-36.062271 -39.599098 90.172890 0.496208 0.080124 0.864499 
-36.272377 -39.877392 90.312630 0.502226 0.028582 0.864264 
-36.154850 -40.557713 90.211891 0.490351 -0.107220 0.864905 
-36.226746 -41.336029 90.086464 0.441152 -0.236385 0.865741 
-36.361706 -41.579613 90.084572 0.415463 -0.278497 0.865927 
-37.984734 -42.814552 89.976295 0.074250 -0.497332 0.864377 
-38.722958 -42.876438 89.942337 -0.068412 -0.498431 0.864226 
-40.480064 -42.086090 89.796524 -0.408234 -0.295091 0.863867 
-41.016342 -41.738926 89.625481 -0.457354 -0.204096 0.865547 
-38.967625 -37.884182 89.314743 0.009394 0.500591 0.865633 
-38.191223 -38.077278 89.343460 0.178672 0.471043 0.863826 
-36.759457 -41.984234 88.832909 0.342928 -0.364457 0.865778 
-41.352886 -40.920303 88.269783 -0.501282 -0.034147 0.864610 
-41.101276 -40.424374 88.416222 -0.498524 0.065632 0.864388 
-36.813316 -38.806816 87.877480 0.424028 0.269007 0.864775 
-38.674770 -42.847939 87.422340 -0.059696 -0.498391 0.864895 
-41.109486 -39.774845 87.043259 -0.467796 0.191574 0.862824 
-39.190784 -37.937386 86.806030 -0.034147 0.501282 0.864610 
-38.480923 -37.729420 86.650925 0.100920 0.490388 0.865641 
-36.163002 -40.908081 86.351868 0.475377 -0.166308 0.863920 
-40.947186 -41.345921 85.920486 -0.480268 -0.137841 0.866223 
-39.297718 -37.759495 85.429489 -0.048320 0.498382 0.865610 
-37.045483 -38.229855 85.229889 0.355271 0.352195 0.865876 
-36.267353 -40.679218 85.180077 0.486121 -0.134953 0.863409 
-36.232517 -41.272099 85.028175 0.446915 -0.227219 0.865239 
-36.379803 -41.629810 84.998642 0.410426 -0.288366 0.865099 
-38.013378 -42.643284 84.996925 0.074250 -0.497332 0.864377 
-41.082531 -39.671825 84.492004 -0.458254 0.207483 0.864265 
-39.676899 -38.107254 84.321457 -0.128422 0.486270 0.864320 
-36.227005 -39.314831 83.871147 0.480074 0.140686 0.865873 
-40.827869 -42.077415 83.270782 -0.426085 -0.262323 0.865817 
-41.118118 -41.413067 83.272743 -0.480074 -0.140686 0.865873 
-41.444870 -40.493141 83.135536 -0.499326 0.045393 0.865224 
-37.150486 -38.499077 82.853745 0.374187 0.337230 0.863863 
-38.484863 -42.917244 82.304070 -0.017574 -0.498826 0.866524 
-38.949768 -42.829418 82.316086 -0.113025 -0.487867 0.865570 
-41.012264 -41.125427 82.105637 -0.495059 -0.086036 0.864589 
-36.405334 -39.199791 81.414665 0.470330 0.172504 0.865466 
-36.514828 -41.342926 81.340630 0.426085 -0.262323 0.865817 
-37.295330 -42.459518 81.166626 0.220900 -0.452320 0.864066 
-39.991306 -42.682793 80.868881 -0.304987 -0.403073 0.862853 
-41.117561 -41.040344 80.788910 -0.500708 -0.062763 0.863338 
-41.261044 -40.660366 80.708282 -0.502893 0.014831 0.864221 
-38.417416 -37.991009 80.440727 0.125269 0.485237 0.865363 
-37.372940 -38.437916 80.380081 0.346558 0.365041 0.864085 
-36.368523 -39.655014 80.192848 0.497417 0.080319 0.863786 
-36.670910 -42.008648 79.896217 0.349112 -0.358340 0.865860 
-38.932072 -42.748890 79.823616 -0.116298 -0.486730 0.865776 
-41.281345 -39.590591 79.285126 -0.458536 0.204624 0.864797 
-39.948521 -38.075813 79.177490 -0.175810 0.471290 0.864278 
-38.384727 -37.827007 79.073227 0.122128 0.484202 0.866391 
-38.125877 -38.090897 79.180870 0.191840 0.465471 0.864022 
-36.555130 -39.195896 78.959862 0.467121 0.185365 0.864545 
-41.196945 -40.513226 78.205551 -0.502641 0.042690 0.863441 
-40.716953 -38.637074 77.950111 -0.336720 0.370545 0.865631 
-37.106457 -38.154831 77.603432 0.342928 0.364457 0.865778 
-36.474586 -39.565090 77.699303 0.489288 0.104134 0.865883 
-36.141773 -40.822880 77.462532 0.479641 -0.150161 0.864521 
-36.586784 -41.674519 77.459000 0.390567 -0.313985 0.865373 
-36.927769 -41.977703 77.473549 0.321101 -0.385629 0.864976 
-38.666000 -43.134693 77.096474 -0.051074 -0.498313 0.865491 
-37.232563 -38.348038 76.473068 0.351809 0.357954 0.864927 
-37.101318 -42.444607 76.034058 0.249990 -0.434831 0.865117 
-36.221962 -40.816692 74.971420 0.478171 -0.156466 0.864217 
-40.501976 -38.772583 74.283653 -0.324235 0.382628 0.865140 
-36.897446 -42.400173 73.453514 0.282043 -0.416203 0.864423 
-38.240875 -42.691132 73.546844 0.025801 -0.501084 0.865014 
-41.228638 -39.913803 73.032211 -0.478171 0.156466 0.864217 
-41.031506 -39.410046 73.011818 -0.434019 0.246498 0.866525 
-36.671349 -41.986313 72.285675 0.352195 -0.355271 0.865876 
-37.859333 -42.936123 72.108421 0.094922 -0.491608 0.865628 
-38.144608 -43.044037 72.067482 0.039806 -0.498257 0.866115 
-40.948940 -41.512852 71.923485 -0.471658 -0.168974 0.865440 
-41.287876 -40.980064 71.799660 -0.500517 -0.045502 0.864530 
-39.181114 -37.999809 71.603264 -0.031418 0.501327 0.864687 
-38.844795 -37.983288 71.590828 0.036926 0.499184 0.865709 
-37.053963 -38.692245 71.452454 0.400501 0.305363 0.863917 
-40.536438 -38.715164 70.436043 -0.323853 0.385247 0.864120 
-39.625835 -37.988575 70.289070 -0.116136 0.488917 0.864565 
-36.279404 -41.280205 69.810120 0.443885 -0.233228 0.865200 
-37.517742 -42.698814 69.654106 0.162802 -0.476671 0.863875 
-38.019424 -43.039024 69.529755 0.062612 -0.499505 0.864046 
-41.050713 -40.017006 69.343735 -0.480853 0.150541 0.863781 
-36.595421 -39.156876 68.815811 0.462870 0.194971 0.864718 
-36.097618 -40.992092 68.519630 0.471290 -0.175810 0.864278 
-41.346142 -39.980305 67.892426 -0.480268 0.137841 0.866223 
-40.097256 -38.280628 67.824295 -0.217742 0.455005 0.863458 
-39.288883 -38.022152 67.805962 -0.051196 0.499506 0.864796 
-38.503445 -37.909641 67.708260 0.100920 0.490388 0.865641 
-37.948296 -37.763943 67.533173 0.200963 0.459983 0.864887 
-36.116467 -39.956001 67.358147 0.501742 0.012106 0.864933 
-37.797466 -37.849426 66.263420 0.230071 0.446607 0.864644 
-37.502506 -42.818745 65.770172 0.159539 -0.475690 0.865024 
-41.199963 -40.743847 65.505577 -0.503455 -0.001335 0.864020 
-39.588840 -38.104977 65.284462 -0.113305 0.489078 0.864850 
-39.298172 -37.971691 65.235855 -0.051196 0.499506 0.864796 
-36.988777 -42.215084 64.688446 0.285960 -0.414412 0.863996 
-37.389095 -42.474495 64.671654 0.201482 -0.461170 0.864134 
-39.390457 -38.078159 64.020851 -0.074250 0.497332 0.864377 
-36.968353 -42.310188 63.363811 0.278877 -0.419077 0.864061 
-41.183475 -40.065628 62.922993 -0.484905 0.134615 0.864145 
-40.048141 -38.409893 62.824242 -0.217742 0.455005 0.863458 
-38.604122 -37.729427 62.538914 0.077142 0.495114 0.865397 
-40.539059 -42.380814 61.719543 -0.385629 -0.321101 0.864976 
-41.261681 -40.291088 61.639973 -0.494010 0.089177 0.864871 
-41.311569 -40.094463 61.580967 -0.485410 0.122433 0.865672 
-36.279030 -40.946766 61.008984 0.469690 -0.182246 0.863816 
-36.803757 -41.892323 60.948742 0.346023 -0.361402 0.865827 
-37.006393 -42.376064 60.800686 0.269007 -0.424028 0.864775 
-38.506351 -42.854073 60.750343 -0.025801 -0.501084 0.865014 
-40.858257 -39.029995 60.272869 -0.387591 0.317120 0.865568 
-39.190361 -38.077000 60.218102 -0.031418 0.501327 0.864687 
-36.842644 -38.682148 59.914787 0.414412 0.285960 0.863996 
-37.635105 -42.775230 59.467720 0.137649 -0.482496 0.865015 
-38.667873 -42.840050 59.486961 -0.059696 -0.498391 0.864895 
-41.148071 -39.352436 58.964497 -0.434019 0.246498 0.866525 
-40.753471 -38.583424 58.862244 -0.333607 0.373578 0.865532 
-38.779999 -37.732994 58.745731 0.042647 0.499387 0.865329 
-36.146114 -40.850582 58.410782 0.478171 -0.156466 0.864217 
-39.863079 -42.539391 58.119617 -0.302203 -0.403449 0.863656 
-40.247967 -38.567230 57.768173 -0.266540 0.427986 0.863588 
-36.759037 -42.093548 57.037609 0.330488 -0.376603 0.865418 
-41.071144 -39.195923 56.418568 -0.418677 0.272521 0.866281 
-35.888065 -41.535194 56.549583 0.477837 -0.140882 -0.867078 
-35.773003 -40.275253 56.561161 0.496318 0.077330 -0.864690 
-39.235325 -37.644352 56.833836 -0.153436 0.474921 -0.866549 
-39.882408 -37.455399 57.075283 -0.240168 0.439553 -0.865512 
-41.790306 -40.088680 57.271103 -0.499725 -0.012123 -0.866099 
-36.365742 -42.122871 57.696213 0.431706 -0.255994 -0.864926 
-38.245384 -37.274879 58.245342 0.020276 0.498800 -0.866480 
-39.354694 -37.562778 58.166599 -0.169405 0.472860 -0.864700 
-39.602844 -37.782486 58.112476 -0.223478 0.448456 -0.865416 
-40.109329 -37.742554 58.275711 -0.289129 0.411512 -0.864328 
-40.952419 -38.478237 58.337402 -0.416560 0.279233 -0.865163 
-41.407379 -41.063461 58.431850 -0.469690 -0.182246 -0.863816 
-41.291813 -41.770374 58.568790 -0.413678 -0.282400 -0.865518 
-37.513485 -43.029442 58.852024 0.262671 -0.429687 -0.863929 
-35.796001 -41.184265 59.084553 0.496318 -0.077330 -0.864690 
-35.595062 -40.675259 59.184681 0.501742 0.012106 -0.864933 
-35.899391 -39.557564 59.148312 0.462599 0.197832 -0.864213 
-37.393814 -37.726063 59.335949 0.166117 0.471890 -0.865867 
-39.885075 -37.560139 59.566315 -0.249660 0.437283 -0.863975 
-40.324753 -37.761200 59.611641 -0.310846 0.393534 -0.865162 
-41.434502 -41.376381 59.798607 -0.448755 -0.220625 -0.865993 
-40.030231 -42.932827 59.920940 -0.175810 -0.471290 -0.864278 
-36.796112 -42.464500 60.140755 0.382628 -0.324235 -0.865140 
-35.889046 -39.964870 60.352127 0.481478 0.134467 -0.866082 
-36.966869 -38.236225 60.453411 0.262323 0.426085 -0.865817 
-37.021519 -37.705040 60.700115 0.217473 0.451444 -0.865392 
-39.649914 -43.083294 61.218914 -0.104134 -0.489288 -0.865883 
-36.368057 -41.961304 61.457947 0.443885 -0.233228 -0.865200 
-37.111233 -37.652275 61.973515 0.200963 0.459983 -0.864887 
-38.391941 -37.250217 62.067818 -0.004008 0.498291 -0.867000 
-40.184719 -37.988571 61.998241 -0.317582 0.391224 -0.863762 
-41.504726 -40.092693 62.192341 -0.499725 -0.012123 -0.866099 
-39.791245 -43.269100 62.607899 -0.122261 -0.487607 -0.864460 
-37.337017 -43.236313 62.813824 0.266184 -0.424373 -0.865479 
-36.188759 -42.037849 62.839619 0.443885 -0.233228 -0.865200 
-36.440670 -38.558922 63.033417 0.351259 0.354327 -0.866643 
-41.857647 -40.275406 63.665211 -0.498257 -0.039806 -0.866115 
-41.223724 -41.585423 63.561779 -0.423259 -0.265485 -0.866239 
