ply
format ascii 1.0
comment Created by CloudCompare v2.12.4 (Kyiv)
comment Created 2023-03-22T13:07:53
obj_info Generated by CloudCompare!
element vertex 820
property float x
property float y
property float z
property float nx
property float ny
property float nz
end_header
0.000000 244.479004 5.922647 -0.999999 0.000978 0.000978 
0.000000 212.253479 19.700661 -0.999999 0.000978 0.000978 
0.000000 256.953949 8.413267 -0.999999 0.000978 0.000978 
0.000000 231.130447 15.567355 -0.999999 0.000978 0.000978 
0.000000 129.206879 27.511087 -0.999999 0.000978 0.000978 
0.000000 273.079620 20.491728 -0.999999 0.000978 0.000978 
0.000000 164.397842 25.600140 -0.999999 0.000978 0.000978 
0.000000 88.558685 27.555040 -0.999999 0.000978 0.000978 
0.000000 102.152466 28.962881 -0.999999 0.000978 0.000978 
0.000000 88.400238 21.878181 -0.999999 0.000978 0.000978 
0.000000 144.512695 22.613884 -0.999999 0.000978 0.000978 
0.000000 137.910034 25.458397 -0.999999 0.000978 0.000978 
0.000000 276.900665 22.968269 -0.999999 0.000978 0.000978 
0.000000 292.350098 8.226542 -0.999999 0.000978 0.000978 
0.000000 273.655609 14.939003 -0.999999 0.000978 0.000978 
0.000000 115.352356 28.600632 -0.999999 0.000978 0.000978 
0.000000 275.661804 6.977673 -0.999999 0.000978 0.000978 
0.000000 190.593094 12.014425 -0.999999 0.000978 0.000978 
0.000000 256.189941 26.484688 -0.999999 0.000978 0.000978 
0.000000 110.206375 27.522480 -0.999999 0.000978 0.000978 
0.000000 112.630569 27.944675 -0.999999 0.000978 0.000978 
0.000000 209.346939 9.732443 -0.999999 0.000978 0.000978 
0.000000 231.553589 22.856857 -0.999999 0.000978 0.000978 
0.000000 287.700989 18.016624 -0.999999 0.000978 0.000978 
0.000000 174.202652 23.335545 -0.999999 0.000978 0.000978 
0.000000 258.081451 8.952913 -0.999999 0.000978 0.000978 
0.000000 52.907944 29.741348 -0.999999 0.000978 0.000978 
0.000000 111.891663 23.414299 -0.999999 0.000978 0.000978 
0.000000 191.238159 17.229160 -0.999999 0.000978 0.000978 
0.000000 154.994720 23.692284 -0.999999 0.000978 0.000978 
0.000000 257.630859 14.757729 -0.999999 0.000978 0.000978 
0.000000 248.236176 12.063360 -0.999999 0.000978 0.000978 
0.000000 111.703308 26.581663 -0.999999 0.000978 0.000978 
0.000000 276.537659 15.241785 -0.999999 0.000978 0.000978 
0.000000 247.815353 10.828726 -0.999999 0.000978 0.000978 
0.000000 266.328430 24.701611 -0.999999 0.000978 0.000978 
0.000000 132.172409 27.924030 -0.999999 0.000978 0.000978 
0.000000 283.114899 23.841036 -0.999999 0.000978 0.000978 
0.000000 182.020935 26.275734 -0.999999 0.000978 0.000978 
0.000000 162.988876 16.243633 -0.999999 0.000978 0.000978 
0.000000 191.278961 22.325665 -0.999999 0.000978 0.000978 
0.000000 176.625610 15.840162 -0.999999 0.000978 0.000978 
0.000000 99.653397 28.672852 -0.999999 0.000978 0.000978 
0.000000 252.130798 9.443718 -0.999999 0.000978 0.000978 
0.000000 183.031525 22.042772 -0.999999 0.000978 0.000978 
0.000000 168.407806 21.529087 -0.999999 0.000978 0.000978 
0.000000 122.343903 22.256266 -0.999999 0.000978 0.000978 
0.000000 261.050568 4.812654 -0.999999 0.000978 0.000978 
0.000000 284.931458 8.867458 -0.999999 0.000978 0.000978 
0.000000 75.570816 29.572210 -0.999999 0.000978 0.000978 
0.000000 182.428772 28.824535 -0.999999 0.000978 0.000978 
0.000000 253.225357 29.976002 -0.999999 0.000978 0.000978 
0.000000 276.262512 10.282856 -0.999999 0.000978 0.000978 
0.000000 234.221191 26.309553 -0.999999 0.000978 0.000978 
0.000000 156.909363 17.858952 -0.999999 0.000978 0.000978 
0.000000 166.176285 26.860514 -0.999999 0.000978 0.000978 
0.000000 194.546112 18.404779 -0.999999 0.000978 0.000978 
0.000000 249.584427 10.240192 -0.999999 0.000978 0.000978 
0.000000 241.041107 19.343357 -0.999999 0.000978 0.000978 
0.000000 266.745544 24.099869 -0.999999 0.000978 0.000978 
0.000000 285.293823 9.528456 -0.999999 0.000978 0.000978 
0.000000 158.925491 25.396421 -0.999999 0.000978 0.000978 
0.000000 219.667175 22.908953 -0.999999 0.000978 0.000978 
0.000000 265.120178 19.284233 -0.999999 0.000978 0.000978 
0.000000 150.198410 15.695455 -0.999999 0.000978 0.000978 
0.000000 255.706818 28.343557 -0.999999 0.000978 0.000978 
0.000000 278.195160 10.115145 -0.999999 0.000978 0.000978 
0.000000 252.946442 27.054312 -0.999999 0.000978 0.000978 
0.000000 259.344666 18.394592 -0.999999 0.000978 0.000978 
0.000000 274.760101 18.988129 -0.999999 0.000978 0.000978 
0.000000 51.721252 25.708740 -0.999999 0.000978 0.000978 
0.000000 155.582443 28.816010 -0.999999 0.000978 0.000978 
0.000000 295.565918 18.988831 -0.999999 0.000978 0.000978 
0.000000 62.258270 25.738798 -0.999999 0.000978 0.000978 
0.000000 292.601349 24.247309 -0.999999 0.000978 0.000978 
0.000000 255.661896 18.636436 -0.999999 0.000978 0.000978 
0.000000 272.579742 7.642574 -0.999999 0.000978 0.000978 
0.000000 192.981827 13.422424 -0.999999 0.000978 0.000978 
0.000000 86.225677 23.826399 -0.999999 0.000978 0.000978 
0.000000 209.755173 27.586258 -0.999999 0.000978 0.000978 
0.000000 250.927261 22.680473 -0.999999 0.000978 0.000978 
0.000000 225.381134 8.356867 -0.999999 0.000978 0.000978 
0.000000 83.781052 24.539246 -0.999999 0.000978 0.000978 
0.000000 188.134918 18.994064 -0.999999 0.000978 0.000978 
0.000000 235.705078 7.917324 -0.999999 0.000978 0.000978 
0.000000 241.509460 18.045628 -0.999999 0.000978 0.000978 
0.000000 139.186783 29.980568 -0.999999 0.000978 0.000978 
0.000000 267.904083 9.188581 -0.999999 0.000978 0.000978 
0.000000 158.944275 24.433773 -0.999999 0.000978 0.000978 
0.000000 112.051315 25.521255 -0.999999 0.000978 0.000978 
0.000000 260.448853 5.196884 -0.999999 0.000978 0.000978 
0.000000 134.210892 22.042685 -0.999999 0.000978 0.000978 
0.000000 121.150558 21.685673 -0.999999 0.000978 0.000978 
0.000000 291.572144 20.017006 -0.999999 0.000978 0.000978 
0.000000 247.101410 8.921719 -0.999999 0.000978 0.000978 
0.000000 261.894653 13.798185 -0.999999 0.000978 0.000978 
0.000000 67.578201 27.154858 -0.999999 0.000978 0.000978 
0.000000 167.601257 24.484705 -0.999999 0.000978 0.000978 
0.000000 160.459930 27.447845 -0.999999 0.000978 0.000978 
0.000000 228.239655 11.947630 -0.999999 0.000978 0.000978 
0.000000 156.744324 25.653387 -0.999999 0.000978 0.000978 
0.000000 140.427414 21.887770 -0.999999 0.000978 0.000978 
0.000000 150.398087 29.238995 -0.999999 0.000978 0.000978 
0.000000 121.584320 25.415581 -0.999999 0.000978 0.000978 
0.000000 77.288101 23.540131 -0.999999 0.000978 0.000978 
0.000000 196.641235 28.468969 -0.999999 0.000978 0.000978 
0.000000 266.040894 16.129074 -0.999999 0.000978 0.000978 
0.000000 145.634949 27.236141 -0.999999 0.000978 0.000978 
0.000000 70.039642 24.845095 -0.999999 0.000978 0.000978 
0.000000 89.029694 27.338480 -0.999999 0.000978 0.000978 
0.000000 197.200623 12.403978 -0.999999 0.000978 0.000978 
0.000000 157.948929 19.595001 -0.999999 0.000978 0.000978 
0.000000 204.061356 15.934659 -0.999999 0.000978 0.000978 
0.000000 173.062363 19.890862 -0.999999 0.000978 0.000978 
0.000000 258.108582 23.136784 -0.999999 0.000978 0.000978 
0.000000 290.155579 8.237162 -0.999999 0.000978 0.000978 
0.000000 160.073257 20.770079 -0.999999 0.000978 0.000978 
0.000000 176.161972 18.752022 -0.999999 0.000978 0.000978 
0.000000 225.431091 14.115218 -0.999999 0.000978 0.000978 
0.000000 185.532410 22.342783 -0.999999 0.000978 0.000978 
0.000000 141.237747 16.532482 -0.999999 0.000978 0.000978 
0.000000 127.899628 29.611814 -0.999999 0.000978 0.000978 
0.000000 221.244263 27.377060 -0.999999 0.000978 0.000978 
0.000000 164.643616 29.117664 -0.999999 0.000978 0.000978 
0.000000 245.583893 14.555489 -0.999999 0.000978 0.000978 
0.000000 145.789993 23.151264 -0.999999 0.000978 0.000978 
0.000000 214.477997 29.471273 -0.999999 0.000978 0.000978 
0.000000 103.345734 19.899101 -0.999999 0.000978 0.000978 
0.000000 272.492065 23.033886 -0.999999 0.000978 0.000978 
0.000000 213.780899 22.029882 -0.999999 0.000978 0.000978 
0.000000 271.516937 14.124804 -0.999999 0.000978 0.000978 
0.000000 273.740326 10.009933 -0.999999 0.000978 0.000978 
0.000000 162.086182 20.980492 -0.999999 0.000978 0.000978 
0.000000 136.595016 21.639404 -0.999999 0.000978 0.000978 
0.000000 90.996277 21.318632 -0.999999 0.000978 0.000978 
0.000000 288.685211 21.164431 -0.999999 0.000978 0.000978 
0.000000 295.751282 22.847626 -0.999999 0.000978 0.000978 
0.000000 276.658142 11.854181 -0.999999 0.000978 0.000978 
0.000000 215.687775 13.622456 -0.999999 0.000978 0.000978 
0.000000 299.179871 0.539389 -0.999999 0.000978 0.000978 
0.000000 220.762390 20.498154 -0.999999 0.000978 0.000978 
0.000000 293.909454 24.557491 -0.999999 0.000978 0.000978 
0.000000 268.839447 8.679499 -0.999999 0.000978 0.000978 
0.000000 281.350861 26.427616 -0.999999 0.000978 0.000978 
0.000000 277.204987 11.740736 -0.999999 0.000978 0.000978 
0.000000 120.943222 23.445509 -0.999999 0.000978 0.000978 
0.000000 235.083893 6.633926 -0.999999 0.000978 0.000978 
0.000000 245.271942 9.828608 -0.999999 0.000978 0.000978 
0.000000 250.879578 25.323343 -0.999999 0.000978 0.000978 
0.000000 92.063568 24.855421 -0.999999 0.000978 0.000978 
0.000000 162.532364 21.920692 -0.999999 0.000978 0.000978 
0.000000 251.235580 26.231184 -0.999999 0.000978 0.000978 
0.000000 289.457825 9.559399 -0.999999 0.000978 0.000978 
0.000000 274.797089 14.520103 -0.999999 0.000978 0.000978 
0.000000 216.429810 29.035717 -0.999999 0.000978 0.000978 
0.000000 216.062302 24.808149 -0.999999 0.000978 0.000978 
0.000000 237.133850 19.133600 -0.999999 0.000978 0.000978 
0.000000 267.516418 23.818960 -0.999999 0.000978 0.000978 
0.000000 241.852173 13.678318 -0.999999 0.000978 0.000978 
0.000000 281.087280 27.890537 -0.999999 0.000978 0.000978 
0.000000 176.180710 14.411906 -0.999999 0.000978 0.000978 
0.000000 263.579590 24.654118 -0.999999 0.000978 0.000978 
0.000000 207.116852 17.474506 -0.999999 0.000978 0.000978 
0.000000 210.231750 10.711706 -0.999999 0.000978 0.000978 
0.000000 277.997009 3.577831 -0.999999 0.000978 0.000978 
0.000000 205.458969 29.171396 -0.999999 0.000978 0.000978 
0.000000 202.260818 29.195131 -0.999999 0.000978 0.000978 
0.000000 182.404343 27.609640 -0.999999 0.000978 0.000978 
0.000000 218.048645 26.654766 -0.999999 0.000978 0.000978 
0.000000 221.879974 12.550278 -0.999999 0.000978 0.000978 
0.000000 157.576157 19.160889 -0.999999 0.000978 0.000978 
0.000000 156.133148 21.060555 -0.999999 0.000978 0.000978 
0.000000 215.777725 10.192257 -0.999999 0.000978 0.000978 
0.000000 295.170807 27.408157 -0.999999 0.000978 0.000978 
0.000000 145.595367 22.661602 -0.999999 0.000978 0.000978 
0.000000 297.806732 5.602573 -0.999999 0.000978 0.000978 
0.000000 204.664902 21.940384 -0.999999 0.000978 0.000978 
0.000000 240.243866 6.097496 -0.999999 0.000978 0.000978 
0.000000 171.971848 17.626284 -0.999999 0.000978 0.000978 
0.000000 190.527710 13.544428 -0.999999 0.000978 0.000978 
0.000000 250.643402 9.351095 -0.999999 0.000978 0.000978 
0.000000 207.415131 25.194542 -0.999999 0.000978 0.000978 
0.000000 210.930328 14.346193 -0.999999 0.000978 0.000978 
0.000000 156.242477 21.804409 -0.999999 0.000978 0.000978 
0.000000 240.532059 26.404694 -0.999999 0.000978 0.000978 
0.000000 233.673401 12.836391 -0.999999 0.000978 0.000978 
0.000000 191.507553 21.357334 -0.999999 0.000978 0.000978 
0.000000 163.698959 26.287546 -0.999999 0.000978 0.000978 
0.000000 206.804077 17.564907 -0.999999 0.000978 0.000978 
0.000000 244.541687 10.769222 -0.999999 0.000978 0.000978 
0.000000 233.539490 26.541418 -0.999999 0.000978 0.000978 
0.000000 202.257904 20.797432 -0.999999 0.000978 0.000978 
0.000000 282.065582 20.515671 -0.999999 0.000978 0.000978 
0.000000 297.067322 9.712820 -0.999999 0.000978 0.000978 
0.000000 212.803192 15.657134 -0.999999 0.000978 0.000978 
0.000000 275.507324 10.381979 -0.999999 0.000978 0.000978 
0.000000 215.872406 28.873652 -0.999999 0.000978 0.000978 
0.000000 252.863785 9.841244 -0.999999 0.000978 0.000978 
0.000000 283.914154 18.301580 -0.999999 0.000978 0.000978 
0.000000 295.789398 22.032982 -0.999999 0.000978 0.000978 
0.000000 139.497940 28.040638 -0.999999 0.000978 0.000978 
0.000000 207.952362 9.811850 -0.999999 0.000978 0.000978 
0.000000 248.490906 10.606564 -0.999999 0.000978 0.000978 
0.000000 281.811584 27.517305 -0.999999 0.000978 0.000978 
0.000000 190.975067 13.076977 -0.999999 0.000978 0.000978 
0.000000 191.425827 26.162209 -0.999999 0.000978 0.000978 
0.000000 257.308960 6.338717 -0.999999 0.000978 0.000978 
0.000000 188.605972 14.241343 -0.999999 0.000978 0.000978 
0.000000 258.389648 27.402847 -0.999999 0.000978 0.000978 
0.000000 164.122223 29.472147 -0.999999 0.000978 0.000978 
0.000000 215.818130 16.096241 -0.999999 0.000978 0.000978 
0.000000 29.507477 27.688103 -0.999999 0.000978 0.000978 
0.000000 269.150146 10.876411 -0.999999 0.000978 0.000978 
0.000000 256.889465 6.975771 -0.999999 0.000978 0.000978 
0.000000 186.394180 25.405830 -0.999999 0.000978 0.000978 
0.000000 227.233398 22.128170 -0.999999 0.000978 0.000978 
0.000000 161.667664 23.816204 -0.999999 0.000978 0.000978 
0.000000 189.178574 22.429924 -0.999999 0.000978 0.000978 
0.000000 25.732605 27.900215 -0.999999 0.000978 0.000978 
0.000000 255.525909 28.273840 -0.999999 0.000978 0.000978 
0.000000 222.392120 13.165848 -0.999999 0.000978 0.000978 
0.000000 275.143158 13.494860 -0.999999 0.000978 0.000978 
0.000000 279.058746 25.210842 -0.999999 0.000978 0.000978 
0.000000 179.911987 16.997223 -0.999999 0.000978 0.000978 
0.000000 259.529510 17.545498 -0.999999 0.000978 0.000978 
0.000000 274.857819 10.102137 -0.999999 0.000978 0.000978 
0.000000 248.727478 5.595398 -0.999999 0.000978 0.000978 
0.000000 191.036453 27.054211 -0.999999 0.000978 0.000978 
0.000000 156.942703 22.775621 -0.999999 0.000978 0.000978 
0.000000 56.498852 14.086582 -0.999999 0.000978 0.000978 
0.000000 16.647991 25.947950 -0.999999 0.000978 0.000978 
0.000000 175.293640 3.229805 -0.999999 0.000978 0.000978 
0.000000 42.277607 7.699539 -0.999999 0.000978 0.000978 
0.000000 217.171890 0.403255 -0.999999 0.000978 0.000978 
0.000000 64.906868 18.628983 -0.999999 0.000978 0.000978 
0.000000 87.723389 20.011665 -0.999999 0.000978 0.000978 
0.000000 21.682583 22.636005 -0.999999 0.000978 0.000978 
0.000000 121.993011 3.376030 -0.999999 0.000978 0.000978 
0.000000 122.736313 3.555130 -0.999999 0.000978 0.000978 
0.000000 139.040054 4.863449 -0.999999 0.000978 0.000978 
0.000000 230.828384 3.882155 -0.999999 0.000978 0.000978 
0.000000 74.238068 12.483644 -0.999999 0.000978 0.000978 
0.000000 81.573486 21.651833 -0.999999 0.000978 0.000978 
0.000000 69.042938 12.249615 -0.999999 0.000978 0.000978 
0.000000 54.813931 21.464647 -0.999999 0.000978 0.000978 
0.000000 53.884926 10.747030 -0.999999 0.000978 0.000978 
0.000000 88.634186 11.638733 -0.999999 0.000978 0.000978 
0.000000 125.963005 8.978451 -0.999999 0.000978 0.000978 
0.000000 210.516113 8.221985 -0.999999 0.000978 0.000978 
0.000000 52.814453 21.002100 -0.999999 0.000978 0.000978 
0.000000 205.963974 6.732067 -0.999999 0.000978 0.000978 
0.000000 29.018219 19.910971 -0.999999 0.000978 0.000978 
0.000000 250.027222 0.831220 -0.999999 0.000978 0.000978 
0.000000 17.073511 26.574711 -0.999999 0.000978 0.000978 
0.000000 19.070091 23.657951 -0.999999 0.000978 0.000978 
0.000000 107.210648 10.073857 -0.999999 0.000978 0.000978 
0.000000 79.657623 18.420715 -0.999999 0.000978 0.000978 
0.000000 88.310852 8.442197 -0.999999 0.000978 0.000978 
0.000000 186.566132 7.191564 -0.999999 0.000978 0.000978 
0.000000 81.848885 6.086648 -0.999999 0.000978 0.000978 
0.000000 65.879211 22.960392 -0.999999 0.000978 0.000978 
0.000000 22.283764 7.488169 -0.999999 0.000978 0.000978 
0.000000 97.511108 10.622698 -0.999999 0.000978 0.000978 
0.000000 197.810837 3.213243 -0.999999 0.000978 0.000978 
0.000000 168.773209 11.635753 -0.999999 0.000978 0.000978 
0.000000 25.522366 8.568621 -0.999999 0.000978 0.000978 
0.000000 239.481018 5.839735 -0.999999 0.000978 0.000978 
0.000000 50.700882 4.206459 -0.999999 0.000978 0.000978 
0.000000 212.866730 1.618060 -0.999999 0.000978 0.000978 
0.000000 75.995522 19.652700 -0.999999 0.000978 0.000978 
0.000000 216.990738 7.608248 -0.999999 0.000978 0.000978 
0.000000 49.994785 1.253210 -0.999999 0.000978 0.000978 
0.000000 176.028366 11.049294 -0.999999 0.000978 0.000978 
0.000000 55.709141 12.847119 -0.999999 0.000978 0.000978 
0.000000 31.927860 12.160746 -0.999999 0.000978 0.000978 
0.000000 111.607735 16.367842 -0.999999 0.000978 0.000978 
0.000000 198.357147 4.373504 -0.999999 0.000978 0.000978 
0.000000 29.953405 8.275341 -0.999999 0.000978 0.000978 
0.000000 46.674755 22.813805 -0.999999 0.000978 0.000978 
0.000000 87.229813 16.929523 -0.999999 0.000978 0.000978 
0.000000 55.081203 5.170393 -0.999999 0.000978 0.000978 
0.000000 146.152466 1.015006 -0.999999 0.000978 0.000978 
0.000000 68.384735 16.657135 -0.999999 0.000978 0.000978 
0.000000 104.130936 14.779379 -0.999999 0.000978 0.000978 
0.000000 106.599983 12.728575 -0.999999 0.000978 0.000978 
0.000000 147.234161 7.019535 -0.999999 0.000978 0.000978 
0.000000 65.586533 2.956173 -0.999999 0.000978 0.000978 
0.000000 248.302155 3.907767 -0.999999 0.000978 0.000978 
0.000000 61.149960 4.099054 -0.999999 0.000978 0.000978 
0.000000 24.163593 22.950497 -0.999999 0.000978 0.000978 
0.000000 174.904846 5.115466 -0.999999 0.000978 0.000978 
0.000000 83.474228 10.936193 -0.999999 0.000978 0.000978 
0.000000 49.583618 17.736609 -0.999999 0.000978 0.000978 
0.000000 97.591301 4.994102 -0.999999 0.000978 0.000978 
0.000000 219.074890 7.046086 -0.999999 0.000978 0.000978 
0.000000 83.031418 18.016037 -0.999999 0.000978 0.000978 
0.000000 46.254673 5.320438 -0.999999 0.000978 0.000978 
0.000000 89.668785 3.418936 -0.999999 0.000978 0.000978 
0.000000 22.121325 11.842198 -0.999999 0.000978 0.000978 
0.000000 33.597191 7.887693 -0.999999 0.000978 0.000978 
0.000000 242.465546 0.633876 -0.999999 0.000978 0.000978 
0.000000 89.168411 17.945210 -0.999999 0.000978 0.000978 
0.000000 49.047260 8.687780 -0.999999 0.000978 0.000978 
0.000000 149.674072 9.043827 -0.999999 0.000978 0.000978 
0.000000 148.255707 3.038938 -0.999999 0.000978 0.000978 
0.000000 51.541203 20.655390 -0.999999 0.000978 0.000978 
0.000000 47.642403 4.726629 -0.999999 0.000978 0.000978 
0.000000 32.864021 19.542950 -0.999999 0.000978 0.000978 
0.000000 120.025688 15.804858 -0.999999 0.000978 0.000978 
0.000000 32.951496 15.682421 -0.999999 0.000978 0.000978 
0.000000 39.459690 16.177309 -0.999999 0.000978 0.000978 
0.000000 36.912998 8.381224 -0.999999 0.000978 0.000978 
0.000000 239.180084 5.091831 -0.999999 0.000978 0.000978 
0.000000 171.144684 8.893299 -0.999999 0.000978 0.000978 
0.000000 86.264023 14.881628 -0.999999 0.000978 0.000978 
0.000000 66.275879 22.814926 -0.999999 0.000978 0.000978 
0.000000 8.633026 15.963040 -0.999999 0.000978 0.000978 
0.000000 75.335602 13.980253 -0.999999 0.000978 0.000978 
0.000000 50.003117 21.914869 -0.999999 0.000978 0.000978 
0.000000 31.671591 5.335752 -0.999999 0.000978 0.000978 
0.000000 58.799011 21.753922 -0.999999 0.000978 0.000978 
0.000000 196.413391 0.904681 -0.999999 0.000978 0.000978 
0.000000 125.954811 16.730085 -0.999999 0.000978 0.000978 
0.000000 194.224792 8.831832 -0.999999 0.000978 0.000978 
0.000000 236.595245 2.101156 -0.999999 0.000978 0.000978 
0.000000 44.694141 20.340969 -0.999999 0.000978 0.000978 
0.000000 76.183403 2.195768 -0.999999 0.000978 0.000978 
0.000000 45.950645 4.533060 -0.999999 0.000978 0.000978 
0.000000 48.185429 4.334951 -0.999999 0.000978 0.000978 
0.000000 144.352798 10.706570 -0.999999 0.000978 0.000978 
0.000000 94.047234 3.793934 -0.999999 0.000978 0.000978 
0.000000 62.499836 23.219931 -0.999999 0.000978 0.000978 
0.000000 103.619598 3.649731 -0.999999 0.000978 0.000978 
0.000000 16.618391 12.917171 -0.999999 0.000978 0.000978 
0.000000 77.522812 9.566739 -0.999999 0.000978 0.000978 
0.000000 94.600189 9.196897 -0.999999 0.000978 0.000978 
0.000000 77.480537 6.299989 -0.999999 0.000978 0.000978 
0.000000 12.394563 3.411898 -0.999999 0.000978 0.000978 
0.000000 68.545822 5.959423 -0.999999 0.000978 0.000978 
0.000000 69.124191 17.834459 -0.999999 0.000978 0.000978 
0.000000 28.633322 13.961693 -0.999999 0.000978 0.000978 
0.000000 12.640955 22.411684 -0.999999 0.000978 0.000978 
0.000000 126.139275 14.831775 -0.999999 0.000978 0.000978 
0.000000 88.420135 14.173363 -0.999999 0.000978 0.000978 
0.000000 120.848518 3.919944 -0.999999 0.000978 0.000978 
0.000000 59.948936 20.013180 -0.999999 0.000978 0.000978 
0.000000 274.550659 0.228929 -0.999999 0.000978 0.000978 
0.000000 31.924879 16.672518 -0.999999 0.000978 0.000978 
0.000000 77.593590 16.457062 -0.999999 0.000978 0.000978 
0.000000 53.144772 3.543011 -0.999999 0.000978 0.000978 
0.000000 70.138275 7.412749 -0.999999 0.000978 0.000978 
0.000000 10.167788 8.024876 -0.999999 0.000978 0.000978 
0.000000 30.720259 5.957813 -0.999999 0.000978 0.000978 
0.000000 38.215961 1.017715 -0.999999 0.000978 0.000978 
0.000000 52.823292 11.343968 -0.999999 0.000978 0.000978 
0.000000 169.473297 9.307250 -0.999999 0.000978 0.000978 
0.000000 109.333771 2.715487 -0.999999 0.000978 0.000978 
0.000000 13.914923 1.206800 -0.999999 0.000978 0.000978 
0.000000 103.210411 0.209181 -0.999999 0.000978 0.000978 
0.000000 121.884270 1.310585 -0.999999 0.000978 0.000978 
0.000000 128.981735 16.012903 -0.999999 0.000978 0.000978 
0.000000 92.346695 0.688747 -0.999999 0.000978 0.000978 
0.000000 152.075363 7.968302 -0.999999 0.000978 0.000978 
0.000000 63.259819 20.695229 -0.999999 0.000978 0.000978 
0.000000 253.951584 4.045527 -0.999999 0.000978 0.000978 
0.000000 189.779648 8.351630 -0.999999 0.000978 0.000978 
0.000000 274.751404 0.866369 -0.999999 0.000978 0.000978 
0.000000 36.773544 17.102758 -0.999999 0.000978 0.000978 
0.000000 6.039421 15.509662 -0.999999 0.000978 0.000978 
0.000000 114.289864 17.057329 -0.999999 0.000978 0.000978 
0.000000 117.348824 9.780563 -0.999999 0.000978 0.000978 
0.000000 217.084198 0.021455 -0.999999 0.000978 0.000978 
0.000000 68.409988 10.916379 -0.999999 0.000978 0.000978 
0.000000 269.635437 2.189703 -0.999999 0.000978 0.000978 
0.000000 221.688873 5.422421 -0.999999 0.000978 0.000978 
0.000000 107.473793 2.420527 -0.999999 0.000978 0.000978 
0.000000 115.910690 4.779592 -0.999999 0.000978 0.000978 
0.000000 114.652046 16.046278 -0.999999 0.000978 0.000978 
0.000000 85.522926 13.584969 -0.999999 0.000978 0.000978 
0.000000 122.669601 11.620525 -0.999999 0.000978 0.000978 
0.000000 165.812927 5.632985 -0.999999 0.000978 0.000978 
0.000000 146.280594 12.705421 -0.999999 0.000978 0.000978 
0.000000 167.076187 8.056563 -0.999999 0.000978 0.000978 
0.000000 134.582642 16.294870 -0.999999 0.000978 0.000978 
0.000000 13.623455 14.043096 -0.999999 0.000978 0.000978 
0.000000 68.765991 21.805738 -0.999999 0.000978 0.000978 
0.000000 90.586166 1.504560 -0.999999 0.000978 0.000978 
0.000000 7.902907 1.610037 -0.999999 0.000978 0.000978 
0.000000 144.512283 10.515971 -0.999999 0.000978 0.000978 
0.000000 242.895142 2.427775 -0.999999 0.000978 0.000978 
0.000000 87.262596 14.309570 -0.999999 0.000978 0.000978 
0.000000 118.114220 1.619444 -0.999999 0.000978 0.000978 
0.000000 162.808823 11.885933 -0.999999 0.000978 0.000978 
0.000000 47.065651 23.528425 -0.999999 0.000978 0.000978 
0.000000 30.360071 3.392839 -0.999999 0.000978 0.000978 
0.000000 21.537863 1.434263 -0.999999 0.000978 0.000978 
0.000000 82.332352 3.295940 -0.999999 0.000978 0.000978 
0.000000 16.367865 13.207775 -0.999999 0.000978 0.000978 
0.000000 144.300919 7.889480 -0.999999 0.000978 0.000978 
0.000000 194.778275 6.308246 -0.999999 0.000978 0.000978 
0.000000 43.739082 3.997192 -0.999999 0.000978 0.000978 
0.000000 12.115900 23.811787 -0.999999 0.000978 0.000978 
0.000000 23.076427 2.637320 -0.999999 0.000978 0.000978 
0.000000 94.725365 6.569656 -0.999999 0.000978 0.000978 
0.000000 149.716782 1.490964 -0.999999 0.000978 0.000978 
0.000000 146.451843 12.894266 -0.999999 0.000978 0.000978 
0.000000 145.909424 2.043142 -0.999999 0.000978 0.000978 
0.000000 219.640030 5.365861 -0.999999 0.000978 0.000978 
0.000000 31.205166 1.120401 -0.999999 0.000978 0.000978 
0.000000 156.997635 11.663280 -0.999999 0.000978 0.000978 
0.000000 33.382446 6.079250 -0.999999 0.000978 0.000978 
0.000000 253.218597 0.166220 -0.999999 0.000978 0.000978 
0.000000 120.963196 4.157226 -0.999999 0.000978 0.000978 
0.000000 110.400169 2.025032 -0.999999 0.000978 0.000978 
0.000000 114.997925 10.705732 -0.999999 0.000978 0.000978 
0.000000 36.963917 24.708801 -0.999999 0.000978 0.000978 
0.000000 105.789925 11.157432 -0.999999 0.000978 0.000978 
0.000000 154.870926 14.500827 -0.999999 0.000978 0.000978 
0.000000 134.478699 10.192553 -0.999999 0.000978 0.000978 
0.000000 9.167061 20.583378 -0.999999 0.000978 0.000978 
0.000000 121.981171 14.753868 -0.999999 0.000978 0.000978 
0.000000 11.527004 22.068779 -0.999999 0.000978 0.000978 
0.000000 3.212245 23.601664 -0.999999 0.000978 0.000978 
0.000000 66.372963 8.292741 -0.999999 0.000978 0.000978 
0.000000 221.752579 7.200866 -0.999999 0.000978 0.000978 
0.000000 127.205650 11.451591 -0.999999 0.000978 0.000978 
0.000000 218.206650 5.413214 -0.999999 0.000978 0.000978 
0.000000 51.922600 0.361441 -0.999999 0.000978 0.000978 
0.000000 199.588287 4.932391 -0.999999 0.000978 0.000978 
0.000000 32.755161 21.632639 -0.999999 0.000978 0.000978 
0.000000 180.823898 9.247764 -0.999999 0.000978 0.000978 
0.000000 221.704742 1.531372 -0.999999 0.000978 0.000978 
0.000000 151.018387 2.213742 -0.999999 0.000978 0.000978 
0.000000 38.969067 4.519136 -0.999999 0.000978 0.000978 
0.000000 37.874031 19.273348 -0.999999 0.000978 0.000978 
0.000000 264.682678 2.362809 -0.999999 0.000978 0.000978 
0.000000 34.010796 11.144837 -0.999999 0.000978 0.000978 
0.000000 243.149429 4.471571 -0.999999 0.000978 0.000978 
0.000000 131.824127 3.457033 -0.999999 0.000978 0.000978 
0.000000 27.822332 26.795406 -0.999999 0.000978 0.000978 
0.000000 197.264450 4.976635 -0.999999 0.000978 0.000978 
0.000000 222.367630 4.219443 -0.999999 0.000978 0.000978 
0.000000 1.475296 0.633417 -0.999999 0.000978 0.000978 
0.000000 7.933211 11.483335 -0.999999 0.000978 0.000978 
0.000000 39.938889 5.232868 -0.999999 0.000978 0.000978 
0.000000 192.202103 8.156248 -0.999999 0.000978 0.000978 
0.000000 103.491150 2.573280 -0.999999 0.000978 0.000978 
0.000000 6.063706 10.533821 -0.999999 0.000978 0.000978 
0.000000 1.434995 28.718016 -0.999999 0.000978 0.000978 
0.000000 81.017410 8.413695 -0.999999 0.000978 0.000978 
0.000000 192.994186 9.593060 -0.999999 0.000978 0.000978 
0.000000 67.590424 4.946861 -0.999999 0.000978 0.000978 
0.000000 46.505352 3.428692 -0.999999 0.000978 0.000978 
0.000000 85.199905 16.105890 -0.999999 0.000978 0.000978 
0.000000 176.829041 8.811079 -0.999999 0.000978 0.000978 
0.000000 36.240116 6.666828 -0.999999 0.000978 0.000978 
0.000000 81.566727 16.398540 -0.999999 0.000978 0.000978 
0.000000 112.873909 16.197470 -0.999999 0.000978 0.000978 
0.000000 186.720322 8.019003 -0.999999 0.000978 0.000978 
0.000000 34.055885 18.064346 -0.999999 0.000978 0.000978 
0.000000 260.149689 1.358298 -0.999999 0.000978 0.000978 
0.000000 52.382645 1.797634 -0.999999 0.000978 0.000978 
0.000000 72.352646 7.909132 -0.999999 0.000978 0.000978 
0.000000 59.497837 1.321539 -0.999999 0.000978 0.000978 
0.000000 90.766693 8.177348 -0.999999 0.000978 0.000978 
0.000000 113.037788 7.252160 -0.999999 0.000978 0.000978 
0.000000 60.354042 3.364983 -0.999999 0.000978 0.000978 
0.000000 11.881886 3.039661 -0.999999 0.000978 0.000978 
0.000000 197.422272 8.507547 -0.999999 0.000978 0.000978 
0.000000 7.337781 17.070042 -0.999999 0.000978 0.000978 
0.000000 49.471943 7.376507 -0.999999 0.000978 0.000978 
0.000000 30.352457 13.487900 -0.999999 0.000978 0.000978 
0.000000 236.069016 2.650209 -0.999999 0.000978 0.000978 
0.000000 38.596588 14.561385 -0.999999 0.000978 0.000978 
0.000000 65.925026 20.798471 -0.999999 0.000978 0.000978 
0.000000 123.725449 15.436197 -0.999999 0.000978 0.000978 
0.000000 16.869204 9.563128 -0.999999 0.000978 0.000978 
0.000000 133.410965 2.028685 -0.999999 0.000978 0.000978 
0.000000 79.759567 18.121704 -0.999999 0.000978 0.000978 
0.000000 13.547803 14.878943 -0.999999 0.000978 0.000978 
0.000000 92.814796 20.103134 -0.999999 0.000978 0.000978 
0.000000 45.967304 16.730293 -0.999999 0.000978 0.000978 
0.000000 113.444351 7.659790 -0.999999 0.000978 0.000978 
0.000000 15.412583 20.856934 -0.999999 0.000978 0.000978 
0.000000 42.818634 7.927572 -0.999999 0.000978 0.000978 
0.000000 48.466324 2.975147 -0.999999 0.000978 0.000978 
0.000000 165.950592 0.994546 -0.999999 0.000978 0.000978 
0.000000 78.506355 11.957900 -0.999999 0.000978 0.000978 
0.000000 195.682449 2.530159 -0.999999 0.000978 0.000978 
0.000000 45.826260 16.474184 -0.999999 0.000978 0.000978 
0.000000 63.013657 9.279229 -0.999999 0.000978 0.000978 
0.000000 20.804779 7.568853 -0.999999 0.000978 0.000978 
0.000000 231.535843 2.741132 -0.999999 0.000978 0.000978 
0.000000 28.415380 17.573975 -0.999999 0.000978 0.000978 
0.000000 86.765915 14.806955 -0.999999 0.000978 0.000978 
0.000000 86.406517 19.849508 -0.999999 0.000978 0.000978 
0.000000 10.863151 9.025692 -0.999999 0.000978 0.000978 
0.000000 108.940514 18.835295 -0.999999 0.000978 0.000978 
0.000000 192.974274 10.265163 -0.999999 0.000978 0.000978 
0.000000 141.603226 1.576777 -0.999999 0.000978 0.000978 
0.000000 222.461258 5.880960 -0.999999 0.000978 0.000978 
0.000000 83.758530 16.862206 -0.999999 0.000978 0.000978 
0.000000 45.602467 6.662239 -0.999999 0.000978 0.000978 
0.000000 65.474022 14.753049 -0.999999 0.000978 0.000978 
0.000000 82.438812 3.336693 -0.999999 0.000978 0.000978 
0.000000 52.524609 14.743636 -0.999999 0.000978 0.000978 
0.000000 202.613892 0.180885 -0.999999 0.000978 0.000978 
0.000000 211.573196 1.341368 -0.999999 0.000978 0.000978 
0.000000 84.512344 18.598993 -0.999999 0.000978 0.000978 
0.000000 58.338032 15.201064 -0.999999 0.000978 0.000978 
0.000000 214.320068 3.826964 -0.999999 0.000978 0.000978 
0.000000 80.122032 14.498156 -0.999999 0.000978 0.000978 
0.000000 53.261551 24.506905 -0.999999 0.000978 0.000978 
0.000000 221.413010 1.003266 -0.999999 0.000978 0.000978 
0.000000 148.237686 6.285625 -0.999999 0.000978 0.000978 
0.000000 203.917404 7.116372 -0.999999 0.000978 0.000978 
0.000000 1.562135 22.315487 -0.999999 0.000978 0.000978 
0.000000 208.342636 4.298926 -0.999999 0.000978 0.000978 
0.000000 191.489273 5.243259 -0.999999 0.000978 0.000978 
0.000000 35.916393 14.017117 -0.999999 0.000978 0.000978 
0.000000 135.868469 14.134688 -0.999999 0.000978 0.000978 
0.000000 211.295792 7.467012 -0.999999 0.000978 0.000978 
0.000000 5.075066 2.146488 -0.999999 0.000978 0.000978 
0.000000 77.519882 11.582510 -0.999999 0.000978 0.000978 
0.000000 10.342913 9.684599 -0.999999 0.000978 0.000978 
0.000000 34.220684 26.479935 -0.999999 0.000978 0.000978 
0.000000 139.651382 0.771793 -0.999999 0.000978 0.000978 
0.000000 104.825867 0.576424 -0.999999 0.000978 0.000978 
0.000000 241.774292 2.285254 -0.999999 0.000978 0.000978 
0.000000 1.620069 27.506477 -0.999999 0.000978 0.000978 
0.000000 213.434906 8.481954 -0.999999 0.000978 0.000978 
0.000000 20.099859 25.910612 -0.999999 0.000978 0.000978 
0.000000 119.614075 3.800355 -0.999999 0.000978 0.000978 
0.000000 36.019260 20.348000 -0.999999 0.000978 0.000978 
0.000000 29.535480 19.240454 -0.999999 0.000978 0.000978 
0.000000 50.590794 1.703379 -0.999999 0.000978 0.000978 
0.000000 161.670135 1.467809 -0.999999 0.000978 0.000978 
0.000000 49.007946 20.801035 -0.999999 0.000978 0.000978 
0.000000 104.160187 7.968959 -0.999999 0.000978 0.000978 
0.000000 28.610390 26.417883 -0.999999 0.000978 0.000978 
0.000000 129.347488 7.217161 -0.999999 0.000978 0.000978 
0.000000 193.210617 0.273001 -0.999999 0.000978 0.000978 
0.000000 57.226772 23.429405 -0.999999 0.000978 0.000978 
0.000000 79.347832 6.855482 -0.999999 0.000978 0.000978 
0.000000 85.484383 2.521343 -0.999999 0.000978 0.000978 
0.000000 40.169445 15.772028 -0.999999 0.000978 0.000978 
0.000000 116.718483 8.390909 -0.999999 0.000978 0.000978 
0.000000 46.392673 15.357449 -0.999999 0.000978 0.000978 
0.000000 70.629562 1.228903 -0.999999 0.000978 0.000978 
0.000000 48.259899 4.351419 -0.999999 0.000978 0.000978 
0.000000 162.989120 10.809620 -0.999999 0.000978 0.000978 
0.000000 104.425270 15.924479 -0.999999 0.000978 0.000978 
0.000000 225.943802 5.214697 -0.999999 0.000978 0.000978 
0.000000 160.340256 7.444174 -0.999999 0.000978 0.000978 
0.000000 95.806396 16.095707 -0.999999 0.000978 0.000978 
0.000000 91.776604 11.299599 -0.999999 0.000978 0.000978 
0.000000 117.417419 13.226295 -0.999999 0.000978 0.000978 
0.000000 11.135867 22.684000 -0.999999 0.000978 0.000978 
0.000000 171.365677 4.236116 -0.999999 0.000978 0.000978 
0.000000 20.023775 24.169420 -0.999999 0.000978 0.000978 
0.000000 47.919865 11.714045 -0.999999 0.000978 0.000978 
0.000000 53.469395 0.685190 -0.999999 0.000978 0.000978 
0.000000 249.399109 0.035029 -0.999999 0.000978 0.000978 
0.000000 5.539989 29.236347 -0.999999 0.000978 0.000978 
0.000000 73.171066 3.089083 -0.999999 0.000978 0.000978 
0.000000 30.693260 11.685280 -0.999999 0.000978 0.000978 
0.000000 40.221062 19.266329 -0.999999 0.000978 0.000978 
0.000000 36.361126 14.802221 -0.999999 0.000978 0.000978 
0.000000 121.947861 12.037444 -0.999999 0.000978 0.000978 
0.000000 101.811699 13.624964 -0.999999 0.000978 0.000978 
0.000000 21.618864 13.845149 -0.999999 0.000978 0.000978 
0.000000 185.564774 7.967279 -0.999999 0.000978 0.000978 
0.000000 120.565712 14.093075 -0.999999 0.000978 0.000978 
0.000000 3.968881 13.524897 -0.999999 0.000978 0.000978 
0.000000 18.115307 15.860412 -0.999999 0.000978 0.000978 
0.000000 251.912720 2.732044 -0.999999 0.000978 0.000978 
0.000000 144.223679 7.590989 -0.999999 0.000978 0.000978 
0.000000 168.750443 1.617718 -0.999999 0.000978 0.000978 
0.000000 14.610204 10.838421 -0.999999 0.000978 0.000978 
0.000000 219.914688 6.793759 -0.999999 0.000978 0.000978 
0.000000 124.980659 1.208061 -0.999999 0.000978 0.000978 
0.000000 37.898636 22.530107 -0.999999 0.000978 0.000978 
0.000000 89.670059 5.266760 -0.999999 0.000978 0.000978 
0.000000 46.278393 2.812038 -0.999999 0.000978 0.000978 
0.000000 8.488359 9.416656 -0.999999 0.000978 0.000978 
0.000000 171.111862 0.333631 -0.999999 0.000978 0.000978 
0.000000 180.411804 5.177835 -0.999999 0.000978 0.000978 
0.000000 186.034286 7.287327 -0.999999 0.000978 0.000978 
0.000000 87.122162 7.199774 -0.999999 0.000978 0.000978 
0.000000 82.706978 1.327320 -0.999999 0.000978 0.000978 
0.000000 105.403923 7.236639 -0.999999 0.000978 0.000978 
0.000000 133.417267 8.866754 -0.999999 0.000978 0.000978 
0.000000 79.236824 18.129328 -0.999999 0.000978 0.000978 
0.000000 29.690178 9.830166 -0.999999 0.000978 0.000978 
0.000000 34.654800 19.745956 -0.999999 0.000978 0.000978 
0.000000 43.971619 6.693151 -0.999999 0.000978 0.000978 
0.000000 3.118253 28.767157 -0.999999 0.000978 0.000978 
0.000000 34.269176 21.283657 -0.999999 0.000978 0.000978 
0.000000 13.136751 14.141716 -0.999999 0.000978 0.000978 
0.000000 100.578773 13.728005 -0.999999 0.000978 0.000978 
0.000000 189.333099 9.364947 -0.999999 0.000978 0.000978 
0.000000 89.173973 0.604033 -0.999999 0.000978 0.000978 
0.000000 67.001663 10.195956 -0.999999 0.000978 0.000978 
0.000000 192.862381 4.426674 -0.999999 0.000978 0.000978 
0.000000 0.386904 23.305313 -0.999999 0.000978 0.000978 
0.000000 30.727320 5.211515 -0.999999 0.000978 0.000978 
0.000000 17.639641 27.199591 -0.999999 0.000978 0.000978 
0.000000 213.207504 5.691302 -0.999999 0.000978 0.000978 
0.000000 44.861198 20.589540 -0.999999 0.000978 0.000978 
0.000000 75.945442 5.249716 -0.999999 0.000978 0.000978 
0.000000 107.586197 3.979252 -0.999999 0.000978 0.000978 
0.000000 68.379021 1.330158 -0.999999 0.000978 0.000978 
0.000000 173.696884 11.578085 -0.999999 0.000978 0.000978 
0.000000 140.199890 8.749268 -0.999999 0.000978 0.000978 
0.000000 18.462496 19.236298 -0.999999 0.000978 0.000978 
0.000000 14.286427 27.326900 -0.999999 0.000978 0.000978 
0.000000 26.070827 15.087599 -0.999999 0.000978 0.000978 
0.000000 188.258636 0.773478 -0.999999 0.000978 0.000978 
0.000000 189.070511 3.522977 -0.999999 0.000978 0.000978 
0.000000 42.010254 15.305925 -0.999999 0.000978 0.000978 
0.000000 79.833755 1.314457 -0.999999 0.000978 0.000978 
0.000000 78.549454 21.054844 -0.999999 0.000978 0.000978 
0.000000 30.494368 12.135502 -0.999999 0.000978 0.000978 
0.000000 75.774963 13.070486 -0.999999 0.000978 0.000978 
0.000000 26.052582 9.161098 -0.999999 0.000978 0.000978 
0.000000 122.663132 3.502023 -0.999999 0.000978 0.000978 
0.000000 212.523529 5.669247 -0.999999 0.000978 0.000978 
0.000000 195.018341 6.278306 -0.999999 0.000978 0.000978 
0.000000 164.515518 3.807988 -0.999999 0.000978 0.000978 
0.000000 111.279221 16.315138 -0.999999 0.000978 0.000978 
0.000000 168.557510 2.743235 -0.999999 0.000978 0.000978 
0.000000 96.476021 13.423268 -0.999999 0.000978 0.000978 
0.000000 17.237108 17.387293 -0.999999 0.000978 0.000978 
0.000000 151.707138 7.857205 -0.999999 0.000978 0.000978 
0.000000 67.984756 10.947848 -0.999999 0.000978 0.000978 
0.000000 174.287781 0.021356 -0.999999 0.000978 0.000978 
0.000000 155.613831 9.330328 -0.999999 0.000978 0.000978 
0.000000 0.959834 22.813536 -0.999999 0.000978 0.000978 
0.000000 183.384491 2.457158 -0.999999 0.000978 0.000978 
0.000000 237.152176 2.420058 -0.999999 0.000978 0.000978 
0.000000 27.282635 10.166727 -0.999999 0.000978 0.000978 
0.000000 160.437500 6.827734 -0.999999 0.000978 0.000978 
0.000000 195.116257 8.946430 -0.999999 0.000978 0.000978 
0.000000 110.115768 15.685427 -0.999999 0.000978 0.000978 
0.000000 107.049438 4.642580 -0.999999 0.000978 0.000978 
0.000000 30.274673 24.080141 -0.999999 0.000978 0.000978 
0.000000 93.080162 7.792812 -0.999999 0.000978 0.000978 
0.000000 195.540070 3.132380 -0.999999 0.000978 0.000978 
0.000000 85.517830 21.118164 -0.999999 0.000978 0.000978 
0.000000 52.684635 20.856186 -0.999999 0.000978 0.000978 
0.000000 29.329670 18.870358 -0.999999 0.000978 0.000978 
0.000000 31.805706 11.045564 -0.999999 0.000978 0.000978 
0.000000 165.204788 0.518295 -0.999999 0.000978 0.000978 
0.000000 129.718826 7.557683 -0.999999 0.000978 0.000978 
0.000000 152.916382 3.188108 -0.999999 0.000978 0.000978 
0.000000 118.032059 18.168686 -0.999999 0.000978 0.000978 
0.000000 202.164154 5.822898 -0.999999 0.000978 0.000978 
0.000000 18.334654 17.738329 -0.999999 0.000978 0.000978 
0.000000 23.229826 13.017393 -0.999999 0.000978 0.000978 
0.000000 128.695740 5.971040 -0.999999 0.000978 0.000978 
0.000000 218.640335 7.319435 -0.999999 0.000978 0.000978 
0.000000 106.654785 14.803135 -0.999999 0.000978 0.000978 
0.000000 208.040070 4.719705 -0.999999 0.000978 0.000978 
0.000000 129.524796 5.545267 -0.999999 0.000978 0.000978 
0.000000 6.896678 20.527115 -0.999999 0.000978 0.000978 
0.000000 41.042431 10.859204 -0.999999 0.000978 0.000978 
0.000000 56.122063 6.533056 -0.999999 0.000978 0.000978 
0.000000 4.280068 13.270515 -0.999999 0.000978 0.000978 
0.000000 118.862152 17.717905 -0.999999 0.000978 0.000978 
0.000000 53.053020 18.133989 -0.999999 0.000978 0.000978 
0.000000 12.338801 24.385933 -0.999999 0.000978 0.000978 
0.000000 40.779949 18.473391 -0.999999 0.000978 0.000978 
0.000000 68.412659 1.497543 -0.999999 0.000978 0.000978 
0.000000 124.905670 8.517017 -0.999999 0.000978 0.000978 
0.000000 33.352020 8.729347 -0.999999 0.000978 0.000978 
0.000000 136.816620 3.101233 -0.999999 0.000978 0.000978 
0.000000 24.366629 20.100534 -0.999999 0.000978 0.000978 
0.000000 61.626041 11.383054 -0.999999 0.000978 0.000978 
0.000000 77.874596 2.261604 -0.999999 0.000978 0.000978 
0.000000 292.008606 0.172281 -0.999999 0.000978 0.000978 
0.000000 43.094547 3.642284 -0.999999 0.000978 0.000978 
0.000000 90.597626 11.793405 -0.999999 0.000978 0.000978 
0.000000 217.042099 7.849107 -0.999999 0.000978 0.000978 
0.000000 99.770020 4.870772 -0.999999 0.000978 0.000978 
0.000000 113.185928 9.769607 -0.999999 0.000978 0.000978 
0.000000 46.401417 14.819193 -0.999999 0.000978 0.000978 
0.000000 27.257486 23.596743 -0.999999 0.000978 0.000978 
0.000000 4.666766 17.357544 -0.999999 0.000978 0.000978 
0.000000 18.389532 6.657341 -0.999999 0.000978 0.000978 
0.000000 273.415924 2.119415 -0.999999 0.000978 0.000978 
0.000000 195.202255 7.610310 -0.999999 0.000978 0.000978 
0.000000 183.268433 8.747398 -0.999999 0.000978 0.000978 
0.000000 20.422384 20.715202 -0.999999 0.000978 0.000978 
0.000000 7.255935 10.712189 -0.999999 0.000978 0.000978 
0.000000 27.266802 12.596808 -0.999999 0.000978 0.000978 
0.000000 117.599442 8.375788 -0.999999 0.000978 0.000978 
0.000000 8.959610 5.557501 -0.999999 0.000978 0.000978 
0.000000 207.233765 5.261684 -0.999999 0.000978 0.000978 
0.000000 25.151606 6.168644 -0.999999 0.000978 0.000978 
0.000000 37.049786 24.941334 -0.999999 0.000978 0.000978 
0.000000 170.444565 3.489355 -0.999999 0.000978 0.000978 
0.000000 33.412277 24.752138 -0.999999 0.000978 0.000978 
0.000000 80.213524 18.087902 -0.999999 0.000978 0.000978 
0.000000 68.709122 19.304989 -0.999999 0.000978 0.000978 
0.000000 145.957245 10.471828 -0.999999 0.000978 0.000978 
0.000000 74.620026 13.503353 -0.999999 0.000978 0.000978 
0.000000 152.175110 5.876504 -0.999999 0.000978 0.000978 
0.000000 89.957550 20.647980 -0.999999 0.000978 0.000978 
0.000000 68.557205 9.077911 -0.999999 0.000978 0.000978 
0.000000 216.876038 4.564662 -0.999999 0.000978 0.000978 
0.000000 147.019318 6.420038 -0.999999 0.000978 0.000978 
0.000000 142.953400 6.861314 -0.999999 0.000978 0.000978 
0.000000 79.589478 6.901626 -0.999999 0.000978 0.000978 
0.000000 199.717697 9.365294 -0.999999 0.000978 0.000978 
0.000000 80.475380 1.237535 -0.999999 0.000978 0.000978 
0.000000 89.429825 3.642088 -0.999999 0.000978 0.000978 
0.000000 76.358894 21.033184 -0.999999 0.000978 0.000978 
0.000000 169.359833 11.417025 -0.999999 0.000978 0.000978 
0.000000 14.678259 11.257006 -0.999999 0.000978 0.000978 
0.000000 63.915737 19.692873 -0.999999 0.000978 0.000978 
0.000000 144.875000 2.006187 -0.999999 0.000978 0.000978 
0.000000 12.113465 12.257298 -0.999999 0.000978 0.000978 
0.000000 116.172394 3.032202 -0.999999 0.000978 0.000978 
0.000000 17.842766 12.733181 -0.999999 0.000978 0.000978 
0.000000 91.711075 1.270630 -0.999999 0.000978 0.000978 
0.000000 117.858521 2.513354 -0.999999 0.000978 0.000978 
0.000000 110.172462 17.315102 -0.999999 0.000978 0.000978 
0.000000 118.105888 8.780763 -0.999999 0.000978 0.000978 
0.000000 36.774830 6.027719 -0.999999 0.000978 0.000978 
0.000000 148.129700 7.564685 -0.999999 0.000978 0.000978 
0.000000 24.229584 6.119068 -0.999999 0.000978 0.000978 
0.000000 218.383026 4.037360 -0.999999 0.000978 0.000978 
0.000000 119.731270 7.191511 -0.999999 0.000978 0.000978 
0.000000 33.456371 1.887209 -0.999999 0.000978 0.000978 
0.000000 259.319489 1.436502 -0.999999 0.000978 0.000978 
0.000000 206.966492 4.963428 -0.999999 0.000978 0.000978 
0.000000 50.453728 5.476902 -0.999999 0.000978 0.000978 
0.000000 250.366959 0.582778 -0.999999 0.000978 0.000978 
0.000000 4.601171 18.988340 -0.999999 0.000978 0.000978 
0.000000 27.613609 0.671648 -0.999999 0.000978 0.000978 
0.000000 45.689018 15.794885 -0.999999 0.000978 0.000978 
0.000000 226.816116 3.575227 -0.999999 0.000978 0.000978 
0.000000 28.520823 10.225529 -0.999999 0.000978 0.000978 
0.000000 90.095833 18.966949 -0.999999 0.000978 0.000978 
0.000000 154.587189 6.289788 -0.999999 0.000978 0.000978 
0.000000 55.904720 0.927570 -0.999999 0.000978 0.000978 
0.000000 98.602150 8.434934 -0.999999 0.000978 0.000978 
0.000000 10.337766 5.478167 -0.999999 0.000978 0.000978 
0.000000 87.102943 2.352591 -0.999999 0.000978 0.000978 
0.000000 43.510201 13.435709 -0.999999 0.000978 0.000978 
0.000000 65.551666 7.332111 -0.999999 0.000978 0.000978 
0.000000 216.792465 7.077624 -0.999999 0.000978 0.000978 
0.000000 222.831650 0.196870 -0.999999 0.000978 0.000978 
0.000000 210.261887 6.359571 -0.999999 0.000978 0.000978 
0.000000 30.754801 0.241777 -0.999999 0.000978 0.000978 
0.000000 106.466553 18.223171 -0.999999 0.000978 0.000978 
0.000000 20.165190 1.571821 -0.999999 0.000978 0.000978 
0.000000 8.654632 7.681330 -0.999999 0.000978 0.000978 
0.000000 126.098228 0.054380 -0.999999 0.000978 0.000978 
0.000000 63.600147 7.444101 -0.999999 0.000978 0.000978 
0.000000 114.193741 1.165981 -0.999999 0.000978 0.000978 
0.000000 207.628510 7.625179 -0.999999 0.000978 0.000978 
0.000000 27.233620 22.528263 -0.999999 0.000978 0.000978 
0.000000 143.136078 6.336637 -0.999999 0.000978 0.000978 
0.000000 180.513443 7.482107 -0.999999 0.000978 0.000978 
6.397415 291.151520 30.000000 0.000978 0.000978 0.999999 
95.060188 256.413940 30.000000 0.000978 0.000978 0.999999 
94.500900 67.087662 30.000000 0.000978 0.000978 0.999999 
68.770195 175.167847 30.000000 0.000978 0.000978 0.999999 
54.433270 215.452820 30.000000 0.000978 0.000978 0.999999 
48.493057 293.958313 30.000000 0.000978 0.000978 0.999999 
84.009895 55.047150 30.000000 0.000978 0.000978 0.999999 
88.714508 111.746780 30.000000 0.000978 0.000978 0.999999 
86.014885 117.289352 30.000000 0.000978 0.000978 0.999999 
55.458145 221.742981 30.000000 0.000978 0.000978 0.999999 
46.740234 276.413361 30.000000 0.000978 0.000978 0.999999 
83.093338 221.309082 30.000000 0.000978 0.000978 0.999999 
88.791115 162.396362 30.000000 0.000978 0.000978 0.999999 
66.297958 197.397278 30.000000 0.000978 0.000978 0.999999 
95.337631 77.570755 30.000000 0.000978 0.000978 0.999999 
40.059410 252.195679 30.000000 0.000978 0.000978 0.999999 
91.411835 166.819153 30.000000 0.000978 0.000978 0.999999 
49.170231 196.739014 30.000000 0.000978 0.000978 0.999999 
95.888298 41.624146 30.000000 0.000978 0.000978 0.999999 
91.796745 147.286575 30.000000 0.000978 0.000978 0.999999 
52.872585 262.115784 30.000000 0.000978 0.000978 0.999999 
80.354332 296.923920 30.000000 0.000978 0.000978 0.999999 
92.081322 148.885925 30.000000 0.000978 0.000978 0.999999 
83.291824 101.162048 30.000000 0.000978 0.000978 0.999999 
78.491882 73.322327 30.000000 0.000978 0.000978 0.999999 
62.018044 253.028595 30.000000 0.000978 0.000978 0.999999 
35.131203 248.794525 30.000000 0.000978 0.000978 0.999999 
46.037586 169.785172 30.000000 0.000978 0.000978 0.999999 
41.528492 277.228424 30.000000 0.000978 0.000978 0.999999 
49.878429 186.289642 30.000000 0.000978 0.000978 0.999999 
81.168327 270.003418 30.000000 0.000978 0.000978 0.999999 
69.134178 102.383347 30.000000 0.000978 0.000978 0.999999 
75.816948 166.081055 30.000000 0.000978 0.000978 0.999999 
90.151894 94.129822 30.000000 0.000978 0.000978 0.999999 
12.775787 274.386200 30.000000 0.000978 0.000978 0.999999 
25.312981 255.759232 30.000000 0.000978 0.000978 0.999999 
66.127960 274.347565 30.000000 0.000978 0.000978 0.999999 
36.216145 269.539093 30.000000 0.000978 0.000978 0.999999 
81.204979 216.085373 30.000000 0.000978 0.000978 0.999999 
94.719406 36.131500 30.000000 0.000978 0.000978 0.999999 
28.316254 283.467712 30.000000 0.000978 0.000978 0.999999 
66.488998 141.728409 30.000000 0.000978 0.000978 0.999999 
59.884380 270.609222 30.000000 0.000978 0.000978 0.999999 
99.252220 125.400909 30.000000 0.000978 0.000978 0.999999 
78.942413 98.019882 30.000000 0.000978 0.000978 0.999999 
45.890976 228.096252 30.000000 0.000978 0.000978 0.999999 
36.314617 209.529556 30.000000 0.000978 0.000978 0.999999 
27.148102 233.625626 30.000000 0.000978 0.000978 0.999999 
89.775993 52.988510 30.000000 0.000978 0.000978 0.999999 
85.241631 108.539383 30.000000 0.000978 0.000978 0.999999 
79.515205 147.549988 30.000000 0.000978 0.000978 0.999999 
99.235504 228.600037 30.000000 0.000978 0.000978 0.999999 
94.693375 262.541931 30.000000 0.000978 0.000978 0.999999 
97.852097 83.310379 30.000000 0.000978 0.000978 0.999999 
95.914963 138.248917 30.000000 0.000978 0.000978 0.999999 
